0.01315692 -0.28775513 -0.02834830
0.00067262 0.35922331 -0.02577925
0.01441923 0.10873676 -0.03922622
-0.01836727 -0.04303700 -0.00947465
0.18874305 -0.01361477 0.01141545
0.02287735 0.03911195 -0.00243828
0.20744181 0.01059448 -0.03504054
0.21941791 0.01912287 0.01428486
-0.15805312 0.03754263 0.01359605
-0.03110603 0.35467106 -0.02316242
-0.18100312 0.03485169 -0.03646113
0.01132932 0.32994497 -0.02643026
-0.07398960 0.30508608 -0.02684414
0.28729698 -0.00165979 -0.01022012
-0.31915674 -0.00583461 -0.02643045
-0.08399079 0.09209516 -0.04263569
-0.27164319 0.03354330 -0.02817948
-0.21550870 0.03018390 -0.04540320
-0.15405822 -0.04192975 0.01199179
-0.08899705 0.04287498 0.01029343
-0.02925988 -0.04439743 -0.01295261
0.08979174 -0.02954083 0.01155039
0.00491302 0.18825476 -0.03281153
0.20097657 -0.00466975 0.02555083
-0.09785435 -0.04613534 -0.01152518
0.00013368 -0.28710318 -0.02721998
0.26366889 0.01025719 -0.01190218
-0.02254480 -0.05761001 -0.03600331
0.23034753 -0.00914544 -0.01184670
-0.00496776 0.13999584 -0.03416970
0.02680566 0.32768482 -0.02958266
0.28742051 0.03457949 0.03508151
-0.30217454 0.00350723 -0.00193018
-0.06251670 -0.36046714 -0.03605374
0.26642513 -0.00947843 0.00024646
-0.02529336 -0.33098525 -0.02169147
-0.05444267 -0.21269536 -0.02904070
-0.29874289 0.01921776 -0.01191564
-0.04391157 0.35922366 -0.03526904
-0.00790138 -0.17223531 -0.03207508
0.24738371 0.01804005 0.00716540
-0.01516776 -0.36461675 -0.02318729
-0.08171365 -0.25747502 -0.03302547
0.00264524 -0.19146807 -0.03286599
0.08073274 0.02244233 -0.00787626
0.02066031 -0.03500496 0.01124235
-0.03262569 -0.26917964 -0.02579603
-0.14368339 0.03641471 -0.01828063
0.23844926 0.02549502 0.02544889
-0.00658764 0.33876729 -0.03145009
-0.17125177 0.03893227 -0.00104521
0.30349940 0.02526111 0.02372169
0.27861562 -0.01976283 0.01461225
-0.13192166 0.04361099 0.00981487
-0.08912838 -0.03642729 -0.04133507
-0.28743112 0.01876644 0.00119915
-0.07473927 -0.15149303 -0.03661314
0.14000444 -0.02316759 -0.02989783
0.11273894 0.02746408 0.00567992
-0.06024263 0.09939835 -0.03646061
-0.22559449 0.03883673 -0.02064694
-0.23565219 -0.02149956 0.01944863
-0.17793086 0.03737308 -0.05081303
-0.01086421 0.36450279 -0.03203613
-0.07178722 0.32357925 -0.02519984
-0.09126823 0.03516753 -0.00636585
-0.08193291 0.12877432 -0.03939987
-0.08238883 0.04736380 -0.02530768
0.11556475 0.02899434 -0.02232833
-0.01785943 -0.04265453 0.00617806
-0.27440792 -0.03245774 -0.02392501
0.05960450 0.02766204 0.02160845
0.09152607 -0.02306452 -0.01816257
-0.04765699 -0.04135522 0.01729520
-0.05072149 -0.29634041 -0.02445886
-0.23742470 -0.03774433 -0.02038294
0.28479448 -0.03116521 0.02317892
-0.19471903 -0.03531707 -0.02132494
-0.31320035 0.00415770 -0.00437696
0.16499816 0.00234149 0.01816711
-0.03412242 0.36486852 -0.03194565
-0.08939220 0.31325859 -0.03330559
-0.06152949 0.04783876 0.01063650
0.29319757 0.00560067 -0.04104853
0.01073460 -0.36001211 -0.03319182
-0.16023526 0.03969246 -0.03693848
-0.24105997 0.03496439 -0.00155013
-0.30442825 0.01173533 -0.03417520
-0.25851265 0.02780284 -0.04590728
-0.10434704 0.04345842 -0.05081439
0.00637300 -0.10292058 -0.03667632
0.22855049 0.01137783 0.00450369
0.08069298 -0.02931149 -0.02930237
-0.05704715 0.05156763 -0.03741403
0.09301209 0.02292031 -0.03497967
-0.08887965 0.06111912 -0.04369766
-0.07384202 -0.30016208 -0.02688652
0.01823194 -0.24368079 -0.03258850
0.06049737 -0.02056347 -0.01041561
-0.28714508 -0.02387731 -0.01769453
0.02520725 0.11188491 -0.04228977
-0.15526645 0.04392381 -0.05247329
-0.00044793 0.29506975 -0.02649232
0.13860841 -0.00708102 -0.00520574
-0.30529663 -0.01093377 -0.01247834
-0.01852611 -0.32264817 -0.02300422
-0.06411601 0.21323921 -0.02993646
-0.15090409 -0.04211751 -0.02831808
0.14744657 0.01814867 -0.03566803
0.09867353 -0.02305441 -0.02992996
0.18862402 0.00374419 0.02543360
-0.09451218 0.08083379 -0.04354898
-0.14248320 -0.03599418 -0.00384083
0.03395521 -0.20129992 -0.03920709
0.07735810 -0.03126515 -0.00983572
-0.14435068 -0.04004790 0.01629343
-0.00968784 -0.20747080 -0.03021754
-0.12619621 0.04034406 -0.03287368
-0.01743668 -0.29958773 -0.02500891
-0.28309762 0.02425576 -0.03999338
-0.10335834 0.03550166 -0.00437454
-0.11896937 0.04547415 0.01175579
-0.09331533 0.03922020 -0.01942175
-0.29915458 -0.00045316 -0.03870397
0.03023040 -0.22649854 -0.03703213
0.11972284 -0.01893209 0.01047900
-0.25607157 -0.02444660 0.01334683
0.26776421 -0.02759525 0.01828400
0.19744907 -0.01867706 0.00777645
-0.06337732 -0.06999622 -0.03747817
-0.07208230 0.04684611 -0.01878118
-0.18099461 0.04214665 -0.02235793
0.00346541 -0.30887097 -0.02526492
0.01540924 0.27889144 -0.03010926
-0.27907136 0.02870559 -0.00752664
-0.01125236 -0.34305775 -0.02239665
0.17840341 0.01466721 -0.01956920
0.27999690 0.00712418 -0.00014712
0.20822713 0.01329686 0.00177365
-0.06077830 -0.26950139 -0.02684044
-0.04292102 -0.16230419 -0.03130967
-0.08370050 0.24067318 -0.03809587
0.00242860 0.06881930 -0.03910204
0.15782487 0.01252424 0.01119351
-0.23266277 0.02874996 0.01343638
0.04911387 0.03112186 -0.01026823
0.18939456 0.01668954 -0.02934759
0.02833780 -0.28024381 -0.03303314
0.21662796 0.01827291 -0.01775564
-0.13655095 0.03273974 -0.04693862
-0.06757147 0.15270814 -0.03427149
0.18460310 -0.00589433 0.01734346
-0.09910115 0.10204188 -0.04156490
-0.25696442 -0.03032119 -0.03410462
-0.07565382 0.04596158 -0.03876336
0.09974131 -0.01631904 -0.00622004
-0.04365133 -0.14195099 -0.03244787
-0.05563159 -0.12078173 -0.03423110
0.02750725 0.17657819 -0.03935380
0.24170659 -0.00111943 -0.02586416
0.01471313 0.03084531 -0.00407257
0.03238851 -0.03419257 -0.03975482
0.03392861 0.07992897 -0.04568861
0.07803128 0.02296152 -0.02307370
0.01559953 -0.30133951 -0.02818486
-0.06330750 0.06472629 -0.03762092
0.02846074 -0.30610174 -0.03202021
-0.02667294 -0.25494260 -0.02695689
-0.07565743 -0.37026250 -0.02653551
0.25886464 0.01212509 -0.03165270
-0.20869689 0.03576545 -0.01293645
-0.10165975 -0.04594906 -0.04843425
-0.04805268 0.04051516 -0.03198284
0.00235241 -0.03360904 -0.01730117
0.11447230 -0.01875420 -0.00383623
0.15640303 -0.01379804 0.02320448
0.11923067 0.02466102 0.01458436
-0.04014299 -0.29067385 -0.02477433
-0.20156269 -0.03761128 -0.01178330
0.03638697 0.10143524 -0.04473876
-0.12040848 -0.04260959 0.01352722
0.00566905 -0.35150659 -0.02554721
0.08569020 -0.01995380 -0.04738918
-0.05123994 0.04076006 0.01780903
-0.05358898 -0.34757471 -0.04686452
-0.19133347 0.04013543 0.00562303
-0.20714456 -0.03721559 0.01008977
0.03785507 -0.12316587 -0.04472989
0.00121903 0.17782575 -0.03291932
-0.03346090 0.03678663 0.00649544
0.03280263 0.35831171 -0.03262980
-0.08718725 0.12031555 -0.04335760
0.09855977 -0.02600586 -0.01046028
-0.11635310 0.04636149 -0.01561798
-0.00707055 0.03670755 -0.00733569
-0.13580015 -0.04431919 -0.01379191
-0.19568412 -0.01124889 0.03169582
0.01695034 0.34898162 -0.03194837
-0.03955700 0.10292776 -0.03423814
0.27863786 0.00012035 -0.04197232
-0.05831022 -0.19591476 -0.03007910
0.02980716 -0.02818613 -0.00664551
0.03863405 -0.23956932 -0.03802563
0.03150212 0.04619864 -0.04607248
0.31767625 -0.00605669 -0.00786347
-0.01218332 0.19356759 -0.03045557
-0.20511359 0.03180056 -0.03865395
-0.09051409 -0.33565807 -0.03244397
0.28149304 0.01090976 0.01615213
-0.06583893 0.36152285 -0.02350530
0.16161065 0.02338930 -0.02654500
-0.04775944 -0.25893712 -0.02623557
-0.07942162 -0.04187195 -0.00814844
0.25986087 0.02046183 0.01289123
-0.00174332 0.04149096 -0.02201206
0.03030859 0.29270244 -0.03310546
0.15384158 -0.00405477 -0.01101233
0.03862169 -0.03203526 -0.02189008
-0.07345703 -0.34474254 -0.02446715
-0.13552137 0.04073517 -0.01374141
-0.00681576 -0.26427042 -0.02752494
-0.06114705 -0.05250602 -0.03690042
0.02907260 0.18739219 -0.03882315
0.16956501 0.01125545 0.02333554
-0.16817167 0.03509816 -0.01656026
-0.22340576 0.02164043 0.02561571
0.13103351 0.02512413 0.01198269
0.22010107 -0.02887361 0.02215013
-0.23968960 0.01100699 0.02166736
0.26793098 0.01600885 0.00800636
-0.03683088 0.25981081 -0.02638602
0.03215440 0.03357142 0.01496875
0.05767074 0.02753090 -0.02970770
-0.06789909 0.29566979 -0.02704207
-0.05659016 0.04864895 -0.02721458
-0.04936589 0.03388084 -0.01373345
0.11928225 -0.02710361 -0.02761440
-0.08964454 0.27715474 -0.03403619
-0.09937958 0.04751353 -0.02236003
0.29967743 -0.00147673 0.00630711
0.02853496 0.15952781 -0.03999355
-0.25545028 0.01060983 0.01922901
0.05795299 -0.03667031 -0.02603522
-0.11517656 -0.03862086 -0.01741605
0.13315578 -0.01943723 0.02149772
0.16477156 -0.01185653 -0.00566970
0.08485392 0.02640787 -0.04116940
0.27822217 -0.03175837 0.03159202
-0.00366177 0.24919178 -0.02791222
0.03397980 0.03311471 -0.00284585
0.10928588 -0.02469408 0.00850636
-0.03005367 0.26874489 -0.02598570
-0.18871891 0.03779623 -0.01297533
-0.07722320 -0.23679365 -0.03173154
0.14562067 0.01703870 0.00955090
0.04028070 -0.02344952 -0.04708735
-0.01584395 0.11768030 -0.03363029
-0.10919721 -0.03559926 -0.05300937
-0.15409397 0.03673942 -0.01603336
0.13326870 -0.01984593 -0.04265694
0.24794704 -0.03200039 0.03107443
0.01661029 -0.07195991 -0.04170461
0.25349271 0.00468593 0.01600855
0.03549094 -0.03238066 0.01395252
0.15274009 0.02169431 -0.01307439
0.08024129 -0.02419870 -0.00325920
0.03835208 0.31101376 -0.03393387
-0.23561114 -0.03233321 -0.00192354
-0.07680015 -0.13357118 -0.03688730
-0.15037395 0.04490586 -0.02632111
0.29083726 -0.04549685 0.04034520
-0.04674171 0.06936622 -0.03692400
0.06419633 0.02724095 0.01268404
0.02303912 0.25926787 -0.03320828
-0.23929137 0.00197405 0.02741735
0.02051086 0.03371812 0.01181468
-0.07049809 -0.36086106 -0.02143598
-0.07936405 -0.21145304 -0.03542109
-0.08307489 -0.32013851 -0.03536563
-0.26743996 -0.02679102 -0.04407874
-0.14253430 0.04362582 -0.03385132
0.19970700 -0.00970058 -0.00735500
-0.13414685 -0.03710189 -0.02321247
-0.30414224 -0.01576391 -0.00369753
-0.29174197 0.02885546 -0.02821701
-0.04980060 -0.04149947 -0.00820813
-0.06113822 -0.32868123 -0.02258109
0.09872339 0.02446918 0.01428977
0.05584938 -0.02544907 -0.02547869
-0.00535116 0.16063266 -0.03210623
-0.01274353 0.32350582 -0.02264842
0.26443782 -0.03153570 0.03095503
-0.18990432 -0.03419577 -0.03619717
0.24998000 0.00934634 -0.02045989
-0.03437475 0.37071300 -0.02360402
0.11201687 0.02626750 -0.00979084
-0.04540098 0.35760891 -0.02221242
-0.03106191 -0.03736790 -0.02335359
-0.22013597 0.00488245 0.03295340
-0.10862354 -0.03948355 -0.04048246
0.24289529 -0.01209668 -0.00028653
0.01484524 -0.03996694 -0.03389799
-0.31299490 0.01163823 -0.01702874
-0.13527893 0.03987872 0.00033269
0.13241735 -0.01857727 -0.00098956
-0.03136239 0.25071317 -0.02627914
-0.06472252 -0.08715709 -0.03728924
-0.04698820 0.20456904 -0.02957919
-0.04963591 0.15901545 -0.03150231
0.04936521 -0.03830799 -0.01712277
0.27925530 -0.04244939 0.02807073
0.20310347 0.02117556 0.01644212
0.20884596 -0.02066366 0.00591093
-0.19272487 0.02872134 -0.04778117
0.07752010 0.03305196 -0.02528436
-0.06497111 -0.04336110 0.01968556
-0.00835896 -0.03486672 0.01907093
0.11966639 -0.02286141 -0.03786099
-0.25375316 0.02907016 -0.03276279
0.03672965 -0.03391067 -0.00029551
-0.21094744 0.03870832 0.01030914
-0.26651672 -0.03262106 -0.01751437
0.22756779 -0.01518672 0.00701733
-0.09775471 -0.03503154 -0.00840762
0.14972357 -0.02000549 -0.03220855
0.02246962 0.14233911 -0.04043110
-0.05557461 -0.37042773 -0.02430827
0.26996329 -0.01726280 0.00578001
-0.11085252 0.04054476 0.00936050
-0.04044488 -0.24819843 -0.02701597
0.00508220 -0.21087532 -0.03125050
0.03171721 -0.08132144 -0.04464292
-0.04800572 -0.15398444 -0.03212440
0.04734167 -0.03037850 -0.00828785
0.21685356 0.01194009 -0.03275532
0.08872697 -0.03051719 0.00052744
-0.03068448 -0.04212949 0.00987564
-0.27677783 -0.02818189 -0.03474497
0.20732100 0.00711080 0.02199978
-0.22170728 0.03431025 -0.00020411
-0.09918645 -0.04356475 -0.00221571
0.02644708 -0.07058060 -0.04371682
0.03551855 -0.35691953 -0.03364769
-0.17407773 -0.04316363 0.00339040
0.01876826 0.09195562 -0.04178578
-0.22944367 -0.03868027 0.00346868
0.02337708 0.24956536 -0.03346547
0.05911014 0.02710392 -0.01680247
-0.07166393 -0.36116594 -0.03237834
-0.17268994 0.03655666 -0.04257975
0.21823332 -0.01330019 -0.01275922
0.17701657 0.01899641 0.00710337
-0.01925186 0.05368309 -0.03731054
0.24341574 0.01538136 -0.02588708
-0.23488790 -0.03247647 -0.04181546
-0.30198148 -0.01297576 -0.02334682
0.00567163 0.03610228 0.00132161
0.20179963 0.01252312 -0.01714321
0.22575782 -0.01137664 -0.02928656
0.04236431 0.03131339 -0.02457401
-0.07962897 0.26823610 -0.03103529
0.30717987 0.01154381 0.01067985
-0.20224796 0.03160954 -0.00609380
-0.02529238 -0.36263067 -0.03101144
0.27955496 0.03631982 0.02794131
0.02437665 -0.35237837 -0.03295601
-0.02238692 -0.14857240 -0.03204201
-0.00356367 -0.25372189 -0.02844819
0.02040075 0.29651600 -0.02959521
-0.19697042 -0.03866883 0.01108448
-0.01118210 0.30994856 -0.02534060
0.21704520 -0.01454991 0.00846793
-0.24444127 -0.00547979 0.02183211
-0.08890079 -0.11055408 -0.04328138
0.00154131 0.34148163 -0.02478722
0.02908065 -0.24534544 -0.03606398
0.16018179 -0.02498937 0.00617290
-0.14077896 0.03713960 0.01820501
-0.10356435 -0.04091319 0.01666911
0.01841861 0.03049087 -0.04086830
0.29917353 0.03419511 0.03266653
-0.00803994 -0.03219727 -0.00800673
0.02267417 0.04003804 -0.02240389
0.16548762 0.01942761 -0.00834682
0.07260142 -0.01894521 -0.04566470
-0.05277759 0.34726447 -0.02133575
-0.15205176 0.03707841 -0.00186696
-0.28357941 -0.00326179 0.00259081
0.02891271 -0.15767905 -0.04129741
0.24370638 0.01323497 -0.00386447
0.27671647 0.00471322 0.00937133
0.00219665 0.04540433 0.00471333
-0.06510399 -0.23075716 -0.02920211
-0.12760642 -0.03777698 -0.03275692
-0.05227764 0.23390271 -0.02811503
0.05835618 0.03621676 -0.02579182
0.10225898 -0.02810571 0.01399523
-0.00790445 0.22154400 -0.02920684
-0.07914241 0.10415225 -0.04019953
0.30182898 -0.03705906 0.03472034
-0.01262479 0.03359435 -0.03440677
-0.25795370 0.01991962 0.01497782
-0.27188545 0.00532551 0.01425708
0.27049759 0.00371154 -0.00985968
-0.24277267 0.02676627 -0.02210142
0.05113661 0.02634305 0.01690222
-0.07429145 -0.17926607 -0.03548020
0.02821855 0.14986841 -0.04128380
-0.05439723 -0.00380137 0.00632074
-0.08044770 -0.35504991 -0.03606835
-0.05497632 0.28462106 -0.02599165
-0.09037098 -0.17140986 -0.04171693
-0.07784218 -0.33672422 -0.02705983
0.01270062 -0.14399682 -0.03698722
0.00550262 -0.22726087 -0.03112839
-0.03699003 -0.20454957 -0.02949009
-0.06591052 0.04511031 -0.02894505
0.13386789 0.01856904 -0.01980662
0.00858906 0.31381249 -0.02696555
0.12732865 -0.02793941 0.00189211
-0.11058429 0.03747458 -0.04547318
0.25914124 0.03142691 0.02972142
0.03935854 -0.17230064 -0.04206665
-0.16239958 -0.04296425 -0.01924715
0.03383688 0.02518416 -0.04371757
0.01299028 -0.17270434 -0.03581623
0.01617345 0.36717302 -0.02875249
-0.29784387 0.01428256 -0.00249295
0.27824152 0.02043834 0.02272645
0.00838533 0.23446509 -0.03058394
-0.07460685 0.28374779 -0.02786691
0.11898407 -0.01769644 -0.01354187
-0.08348798 0.17447022 -0.03978106
-0.27834061 0.02220523 0.00281922
0.23222756 -0.00099821 -0.00745406
0.00547932 0.11465514 -0.03671871
0.17737442 -0.01465106 -0.00128841
0.26194689 -0.00687519 -0.01795668
0.18156375 0.01435706 -0.01055141
-0.01463941 -0.25863254 -0.02651209
0.00230030 0.20684926 -0.03197815
0.01431178 -0.03439537 -0.00113235
-0.02524902 0.17769732 -0.03011973
-0.15951101 0.04319503 -0.00464278
0.01825750 -0.36396921 -0.02912305
0.25521240 -0.01642409 0.01752089
-0.06066965 -0.25863343 -0.02735298
-0.23624437 -0.03221685 0.00958659
-0.02580755 0.19274299 -0.02988841
-0.04258278 0.04749398 -0.02737314
0.26403642 0.03017151 0.02113730
0.07729090 -0.02929747 0.01300295
-0.02616977 0.04680574 0.01035965
-0.27870938 -0.02122107 -0.00487812
-0.05859291 -0.31765318 -0.02394566
-0.03848959 -0.04018371 -0.00998158
-0.15803511 0.03499966 0.02263389
0.06028644 -0.02701477 -0.04423444
-0.06759773 0.25400013 -0.02795290
0.03707721 0.25849408 -0.03655727
0.02927003 0.27553201 -0.03405497
-0.08124156 -0.29471993 -0.03015536
0.30143422 -0.02939902 0.02919381
0.23529236 -0.01325348 -0.01866978
0.14103392 0.01795333 -0.02883764
-0.05339909 0.30797023 -0.02377988
-0.07540334 -0.04028592 -0.01649392
0.00347422 -0.11501901 -0.03617050
-0.07676773 -0.04071952 0.01045831
-0.09451626 0.17918800 -0.04103574
0.00147695 0.04010043 -0.03974405
-0.08926838 -0.24322909 -0.03732319
-0.11679441 0.04176086 -0.02996938
-0.08325633 0.34613675 -0.02816093
-0.07920267 -0.31595135 -0.02714222
-0.27248991 0.02776618 -0.03546188
-0.17300946 -0.03858429 0.01684550
-0.07997473 -0.08377419 -0.04014859
-0.03659821 0.12196980 -0.03252077
0.04626453 -0.02904178 -0.04229885
-0.06298178 -0.04818599 0.00433639
0.03403784 -0.19187516 -0.03926767
-0.04930337 0.31887841 -0.02379178
-0.20967932 0.04107677 -0.02217479
0.11112633 -0.01969577 -0.02193132
0.00291303 0.05955094 -0.03949410
0.03945725 -0.33809304 -0.03289377
0.02304049 0.31286687 -0.02965007
-0.04404737 -0.35365421 -0.03604045
-0.26190156 0.03580846 0.00514979
0.10963202 0.01985058 -0.01658762
-0.01676813 -0.03655352 -0.03629130
0.19456238 -0.02161299 -0.00935678
0.17785342 -0.02321698 0.00471612
0.12518881 0.02544342 -0.00982577
0.01844873 -0.23245023 -0.03047297
-0.02861149 0.04350055 -0.03386997
-0.01913466 0.37171608 -0.02319064
0.18553889 0.01187437 0.02227777
0.22617456 0.01342106 0.01737883
0.10761181 -0.01841765 0.01888191
-0.18428057 0.03126666 -0.04502464
-0.01744516 0.04073327 -0.01919706
-0.03670827 -0.36944711 -0.02337758
0.26750386 -0.00623151 -0.03584938
-0.08160961 0.04932562 0.00585619
-0.27302051 -0.02161712 0.00972008
-0.10794312 -0.04403134 0.00065287
0.09082171 0.02970383 0.01511952
-0.01940953 0.28346634 -0.02583409
-0.04167935 -0.32429600 -0.02233043
-0.16278452 0.03685243 -0.02694787
-0.12374990 0.04250675 0.01905469
0.01814525 -0.03600506 0.02004525
-0.06102868 -0.35164917 -0.04011426
0.00928619 0.22070083 -0.03190685
-0.00515257 -0.14866315 -0.03327600
-0.06343855 -0.14646880 -0.03437957
-0.19700970 0.03865152 -0.02539628
-0.01718844 -0.04402386 -0.01862515
-0.01439285 -0.06341336 -0.03757418
-0.06276526 -0.18418026 -0.03166181
-0.02130922 0.09657642 -0.03525412
-0.07167233 0.16086240 -0.03517278
0.26002198 -0.00157980 0.01446830
-0.01843343 -0.03434132 -0.00656394
0.02339144 -0.34401613 -0.02846077
-0.07518982 0.11611375 -0.03851901
-0.18928845 0.02885353 0.02447398
0.01053382 0.14803821 -0.03626123
-0.10796478 0.04205510 -0.01550577
0.27446878 -0.00522598 0.01309032
-0.06893899 -0.09803984 -0.03643779
-0.01510888 0.03960966 0.00063958
-0.03906794 0.33383512 -0.02195232
0.23385537 -0.00570791 0.01028018
-0.14890616 0.03757682 -0.04129682
0.09685384 0.02422807 -0.01063674
-0.14888217 0.04279599 0.01400559
-0.21294233 -0.03497701 -0.02005483
-0.06379846 0.04763855 -0.01284765
0.28402936 -0.00890054 -0.00055858
-0.08686332 0.22187257 -0.03903811
-0.31708559 0.00050584 -0.01865637
-0.02607565 -0.10071455 -0.03460379
-0.06713258 0.18492295 -0.03324475
0.00581928 -0.26975900 -0.02889110
-0.04181068 -0.04885667 -0.03666062
-0.02206106 0.13526116 -0.03197632
-0.18461519 -0.03406626 -0.02080853
-0.08661191 0.07238434 -0.04348516
-0.07208003 -0.11543621 -0.03643531
0.22632807 0.02014178 0.00542824
0.26026481 0.00884213 -0.00190421
-0.00557878 -0.19461001 -0.03061962
0.03413888 -0.03924241 -0.01864798
0.03305455 -0.05503137 -0.04587994
0.26907080 0.03536271 0.03339535
-0.08283056 0.30249262 -0.03069258
-0.00178451 -0.15935472 -0.03275124
-0.05261590 -0.34760815 -0.02111547
-0.05006925 0.37242603 -0.02411261
-0.18179455 0.03745590 -0.00462052
0.15117429 0.02442002 0.00491078
0.13779256 0.02540211 0.00063205
0.20028050 0.01438322 0.01077600
0.29506004 0.02238801 0.02231001
-0.03919748 -0.03912831 0.00058889
-0.04535987 -0.27651286 -0.02497746
-0.16936664 0.04154736 -0.02295129
-0.28598577 -0.02496660 -0.03618999
0.08692643 0.02894228 0.00695671
-0.00278333 -0.08198488 -0.03731297
0.28924799 -0.02385500 0.02600418
-0.08050126 0.21777275 -0.03414684
0.12634827 -0.01399928 0.01408172
0.15363838 -0.01559287 -0.01832479
-0.28833419 -0.01496414 0.00436758
-0.14839689 -0.03618469 -0.02202790
-0.03421804 -0.03731008 -0.03279629
-0.08199160 0.25571364 -0.04027369
0.00011376 -0.03307033 -0.03821372
0.08659558 0.02043147 -0.04768413
-0.08230968 -0.03335220 -0.00810991
-0.03042774 0.04025890 -0.02490775
0.27137229 0.01181933 0.01740656
-0.07723987 0.03994123 -0.01623278
-0.03226965 0.22878630 -0.02676643
-0.23512217 0.02826352 -0.04781500
-0.06189745 0.27251667 -0.02644542
-0.04326225 0.30075032 -0.02446618
-0.02737745 0.16167998 -0.03127608
-0.11444174 0.03972004 -0.00045816
-0.06971332 0.37065405 -0.02533473
0.05604263 0.03209005 -0.04875164
0.03886203 0.27040505 -0.03624616
0.03370146 -0.25498915 -0.03608011
-0.31452343 -0.01146642 -0.01106810
-0.09722071 0.15484540 -0.04115545
0.22481024 0.02873242 0.02266224
0.11073658 0.01835890 0.01406103
-0.13009228 0.04532039 -0.02116061
-0.22924301 -0.03884760 -0.02635645
0.01521250 0.19139840 -0.03480274
0.03656205 -0.22004747 -0.03902685
-0.26027861 -0.02813717 -0.00568703
-0.07155647 -0.21834484 -0.03188860
-0.01772301 0.24378738 -0.02725855
-0.00584105 -0.04201284 -0.03591572
-0.21717997 -0.03124612 -0.00687111
0.01835095 -0.02928964 -0.02533257
-0.09626918 -0.09429792 -0.04302593
0.31107149 -0.01548882 0.01801112
0.01231639 0.03735014 0.01329962
-0.01917680 -0.13690841 -0.03293367
0.05022980 -0.03148249 0.01309029
-0.02936212 -0.20908162 -0.02855159
0.15840746 -0.01687307 -0.00194804
-0.02090002 -0.35013366 -0.02137196
-0.10233090 -0.03834178 -0.01685830
0.15186593 -0.01680853 0.01349609
0.25372514 0.00185910 -0.00697346
-0.17505424 0.03488010 0.01888378
0.00083116 0.03477813 -0.02893078
0.02725193 -0.01209453 -0.03524184
0.18500245 0.02119583 -0.02147538
0.02062078 -0.16645868 -0.03799300
0.01410772 0.17492603 -0.03489637
0.02437769 0.03578905 -0.01088664
-0.00215046 0.14972910 -0.03382079
-0.08476314 -0.04987207 -0.04832897
-0.22907366 0.03070709 -0.04114593
0.14589775 -0.02263878 -0.01260726
0.27277640 -0.00376756 -0.02268511
0.04001963 0.03288491 -0.04189261
-0.05451180 -0.04620159 -0.02696276
0.06929754 -0.03096449 -0.01356385
-0.20735651 -0.02962846 0.02003387
0.02851408 0.13305680 -0.04256609
-0.08352837 0.04051202 -0.03085514
0.23424312 0.02101510 0.00954633
-0.05212214 -0.10596552 -0.03444749
0.05956086 -0.02956608 0.00693777
0.26807967 -0.01937360 0.02179525
-0.03626690 -0.11539321 -0.03341769
-0.08277839 -0.16461700 -0.03902831
0.03691204 0.05543844 -0.04729315
-0.08417602 0.04060375 -0.00794558
0.22831343 -0.00101379 0.01961473
0.03067543 0.24121107 -0.03572501
-0.11766756 -0.04651472 -0.02675206
0.15377255 0.01549773 0.01960404
-0.07691023 -0.04197724 -0.03016772
-0.00711807 0.12660578 -0.03462348
0.01259668 0.04845428 -0.04244925
-0.01893759 -0.18074512 -0.03055421
-0.02742738 0.35907793 -0.03367331
-0.10602088 0.04377832 -0.00290465
0.30841666 0.00502745 -0.02730050
-0.06068861 -0.06160555 -0.03772192
0.19561207 0.00875812 -0.00784679
-0.03155380 0.06174788 -0.03624605
0.10436529 0.03016039 0.00525356
0.13763727 0.01574102 -0.00163107
0.04960490 -0.03542697 0.00253261
0.17654343 -0.01036353 0.02413198
0.13932063 -0.01270926 0.00151149
-0.02128029 0.35496819 -0.02172082
-0.20843153 -0.03728731 -0.00142936
0.02561508 -0.14811710 -0.04105716
-0.04277713 -0.07657065 -0.03576929
-0.01133786 -0.03597723 0.01088133
0.00066295 -0.03936768 0.01808265
0.00545401 0.25402695 -0.02898149
-0.24658529 -0.03158201 -0.00338787
-0.02893515 0.20502172 -0.02813488
0.26802430 0.00429660 0.00577261
0.04208810 -0.28737468 -0.03494772
-0.09256259 -0.27268785 -0.03475591
0.23030291 -0.01328501 0.01940105
-0.03809777 0.14652263 -0.03158990
0.07233266 0.03068915 0.01007849
-0.28480518 0.00668322 0.00475712
0.23260351 -0.02367691 0.02415531
-0.09044848 -0.04732672 0.00371648
-0.13426109 -0.03867688 -0.05245800
-0.01791006 0.03947600 0.01621471
-0.07140490 0.06202668 -0.03954853
-0.12563056 -0.03581112 -0.00569734
-0.05512828 0.22391982 -0.02814865
-0.24249555 0.03288244 -0.01113794
0.29367650 0.01413565 0.01474378
0.16567926 0.01069239 -0.00855577
0.18255231 -0.01575109 -0.01637085
-0.17574993 -0.04150030 -0.01056422
-0.01644013 -0.09174819 -0.03619402
0.24716571 -0.00856836 -0.01900991
-0.07010172 0.31505722 -0.02717059
-0.09423114 0.05392566 -0.04651743
0.02234918 0.26973158 -0.03258462
-0.29588872 -0.00291690 0.00209429
0.01594914 0.20420836 -0.03386329
-0.00250924 -0.05411033 -0.03829176
-0.00130251 0.37129724 -0.02492416
-0.05753405 -0.28794158 -0.02575172
-0.04108168 -0.19688298 -0.02982699
-0.05035882 0.26704407 -0.02574978
-0.23007199 -0.02766712 0.01691918
-0.02972080 -0.06526714 -0.03623325
-0.06260431 -0.05076960 -0.01995845
0.00373042 -0.14297338 -0.03479956
0.01024114 0.34007555 -0.02610337
-0.21339384 0.03462686 -0.03767172
-0.03603917 0.09494925 -0.03472593
-0.02440936 -0.19223201 -0.02941041
0.10828830 0.02501249 -0.02489934
0.13762510 0.01463099 0.02493864
0.03739960 0.28864789 -0.03604429
0.09041538 -0.02026807 0.01693688
-0.08121923 0.06494497 -0.04228744
0.25079858 0.02130564 0.02246679
-0.05040510 0.13421032 -0.03254126
-0.02332331 -0.12841575 -0.03315290
-0.21616080 -0.01580388 0.03052594
-0.05657115 -0.04448261 0.01789510
0.01154480 0.03486508 -0.03309305
-0.21085873 0.02431829 0.00995533
0.17622025 0.01468735 -0.03382842
0.02749352 -0.10988469 -0.04371458
0.29947487 0.00507732 -0.01317477
-0.07819214 0.14203493 -0.03743132
-0.03334786 0.04449425 -0.01374226
0.00290133 -0.04109772 -0.02158615
-0.10693043 0.03754034 0.01745197
-0.05411184 0.32593495 -0.02246006
-0.08469040 -0.04304520 0.01885390
-0.03962003 0.07723854 -0.03559479
-0.00725101 0.11048882 -0.03474183
0.12951045 -0.01590006 -0.01018794
-0.25607699 0.03511859 -0.00117916
-0.05557813 -0.03446925 -0.00764176
-0.21496679 0.02690025 0.02359086
0.06649026 0.01993076 -0.04280606
-0.04441290 0.04168588 0.00734240
-0.12688215 0.03228117 -0.00599263
0.20672901 0.00242931 -0.00785866
-0.22533838 0.02968194 -0.02786506
-0.05281638 0.04224656 -0.00099547
-0.03751794 -0.17742886 -0.02987806
0.24476449 -0.01763957 0.01281665
-0.06376465 -0.24946912 -0.02820100
-0.26308745 -0.03149203 0.00247815
0.04646451 -0.03395691 -0.03526823
0.15870667 0.01987731 0.00610475
0.19696699 0.01767551 -0.00271850
0.22041629 -0.01871401 -0.02855135
-0.09943853 0.03881609 -0.02630255
0.03653352 -0.11356187 -0.04499935
0.03174315 0.22908464 -0.03662317
0.22323094 0.00702343 -0.02984810
-0.00949748 0.29568827 -0.02599097
-0.17004164 -0.03737720 -0.00145585
-0.03310083 -0.34113729 -0.02196935
0.21722487 -0.02104074 0.02027882
0.21608421 -0.00598672 0.01976578
-0.08328988 -0.10340922 -0.04108615
-0.22321013 -0.03255892 -0.02723882
0.28992128 -0.03839042 0.03569678
0.07150524 0.03246978 -0.01774308
0.01230431 0.24304447 -0.03172806
0.17702903 -0.02141015 -0.00896024
0.14390305 -0.02191688 -0.00030331
-0.14724703 -0.03209352 -0.04844627
-0.01930138 0.04468906 -0.03623496
0.01937224 -0.10860455 -0.04051208
-0.03567376 0.36184263 -0.02257413
0.03334646 -0.29790491 -0.03363886
-0.09369531 -0.03971101 -0.03083143
0.12516086 0.02184423 -0.02736118
0.23153023 -0.02418787 0.00656369
-0.24505889 -0.02760124 -0.04697403
0.25694066 -0.01624920 0.00747118
-0.03551527 0.05204131 -0.02921185
-0.09120152 0.04927954 -0.02088716
-0.27077809 0.02692805 -0.00792282
-0.14432845 0.03466328 -0.00608885
0.29461801 -0.00949101 0.01207033
-0.01974767 0.14561865 -0.03157241
0.22545421 0.01595600 -0.02278779
-0.06201022 -0.04033735 -0.02407128
-0.03223577 -0.14648560 -0.03121067
-0.04587786 -0.04506921 -0.01512759
0.16856150 -0.01912024 0.01783686
0.02054178 -0.27723390 -0.03163429
0.12614329 0.01814104 -0.01401605
0.03027604 0.03599863 -0.03030130
-0.08053703 -0.26765025 -0.03748037
0.03888571 0.12019332 -0.04489938
0.23445672 0.01303031 -0.01600467
0.18542174 0.01678750 0.01538648
-0.02534492 -0.27349037 -0.02586752
0.28472471 -0.01664652 0.00965668
-0.08923654 -0.14643662 -0.04108302
0.01269719 -0.16414262 -0.03615440
-0.21970265 0.03217256 -0.00819225
-0.30006471 0.01754088 -0.02885829
-0.09103017 -0.04722376 -0.02004166
0.27464104 0.00322150 -0.01794204
-0.31080273 -0.00536203 -0.02525005
-0.21991484 0.03707016 -0.02710282
-0.03298536 -0.31305206 -0.02330238
0.10188506 -0.01962943 -0.03722084
-0.29014787 -0.02108163 -0.02589950
-0.06255579 -0.36058116 -0.02514588
-0.05429125 -0.27864259 -0.02642095
-0.02465781 0.07225472 -0.03617513
-0.07125483 -0.04700990 0.01539482
0.08293444 -0.02555616 -0.01552051
0.01023165 0.03771412 -0.00603170
0.25312066 -0.00580732 -0.00311831
-0.00071318 0.03929092 -0.01223363
-0.06607126 0.17161551 -0.03309825
0.21041888 -0.01637119 -0.02511108
-0.02132928 -0.35905784 -0.02172028
0.02093939 -0.30821282 -0.02886123
0.02018852 -0.17946146 -0.03678511
-0.24876851 0.03357316 -0.02084354
-0.06904165 0.22808622 -0.03015223
0.05813380 0.03458418 0.00217585
-0.08735730 -0.20272778 -0.03595559
-0.00982739 -0.32309407 -0.02355266
-0.02720680 -0.17479563 -0.02985620
0.25757375 0.00721020 -0.01680295
-0.17161712 0.03534208 -0.00862157
-0.06721620 0.04295503 0.00686511
0.03140260 -0.34482151 -0.03080653
0.02969795 -0.13939074 -0.04167416
-0.16422908 0.03558267 -0.04334314
-0.13351950 0.03998930 -0.02880643
-0.09680049 -0.15440905 -0.04148394
-0.23755206 0.02965646 -0.02812572
-0.04981586 -0.03700809 -0.01545450
0.06674117 0.02583811 -0.02929117
0.14701572 0.01681938 -0.00938363
-0.00065355 -0.03598210 -0.00016056
-0.12648961 0.03834249 -0.05487432
0.13119327 -0.02514520 -0.02469360
0.27145183 -0.02526241 0.02676196
-0.17795092 -0.03622354 -0.05146522
-0.01061214 -0.28285068 -0.02641321
-0.01167609 -0.10952846 -0.03480550
-0.07073299 -0.27858102 -0.02759809
-0.20568402 0.03261926 -0.02006898
0.18639715 -0.01639070 -0.03010542
-0.12550670 -0.03847995 0.00221765
-0.11618266 -0.03991740 -0.05449830
0.04542173 0.03216318 0.01398091
-0.18286085 0.03834273 0.01028643
0.00854800 -0.04236427 -0.02898296
-0.03611999 -0.13839024 -0.03205707
-0.20823947 -0.03509274 -0.03679336
-0.24528526 0.03083267 -0.03742148
0.02591223 -0.08952143 -0.04331699
0.28003910 -0.01158704 0.01637767
0.29028666 0.00694249 -0.02843621
0.06874303 -0.03070015 -0.00111665
0.24577872 0.00012855 -0.01515226
-0.03389897 -0.16106012 -0.03142697
-0.04091541 -0.09192466 -0.03507630
0.26846188 0.01431456 -0.02537265
-0.18976450 -0.04189783 -0.02020043
0.03808409 0.32217079 -0.03392281
0.06310435 0.02432749 -0.00914679
-0.13924555 -0.03463596 0.01998911
-0.31861824 -0.00860214 -0.01775776
0.18097115 -0.01562849 0.00932596
0.06486215 0.03190684 -0.01281099
0.27223232 -0.00508318 0.00488793
0.17909360 -0.01285888 -0.02830836
0.10652900 -0.02885105 0.00173269
0.28869939 -0.00162398 -0.03981454
0.11314891 -0.02484925 -0.00974499
0.25251824 0.01445547 -0.02644545
0.00886533 -0.13667957 -0.03664346
0.02018515 -0.12589966 -0.03990818
-0.09287824 -0.03930476 -0.01526157
0.01630331 -0.03947020 -0.04305731
-0.06034459 -0.04430422 -0.03636309
-0.03248611 0.28651118 -0.02473297
0.24235776 0.00648786 -0.00952945
-0.19699521 -0.03482509 -0.00396186
0.18813528 -0.01473263 -0.00398422
-0.07064428 -0.20200503 -0.03240855
-0.08650507 0.04809170 -0.04158310
-0.11351572 0.03743624 -0.01947605
-0.05025068 -0.19415665 -0.02998216
0.02693772 0.03853243 0.00522982
-0.09430970 -0.05629403 -0.04377910
-0.08481997 -0.19326206 -0.03736819
0.23619390 0.01387610 -0.03151578
0.24567845 -0.03022062 0.02071984
-0.07950895 0.32434422 -0.02793060
0.13024434 0.01771760 -0.04298798
-0.03240393 0.04135087 0.01325233
-0.14728554 0.04383399 -0.01877704
0.09835018 0.02708033 0.00045045
-0.09068692 0.19003339 -0.04012986
-0.08702262 0.33040869 -0.02762913
0.01568519 0.03391732 0.02069671
-0.20475148 0.03386299 0.01301550
0.11923482 0.02380845 -0.01524475
-0.09365562 0.13711177 -0.04155226
-0.02039874 0.30925643 -0.02432213
0.14278865 -0.01485065 0.01557308
-0.12317795 -0.03817193 0.02107393
-0.28892040 0.00095723 0.00895157
0.02852535 0.33682925 -0.02968825
0.00676683 -0.28249437 -0.02862289
0.24328430 0.00512184 0.01602234
-0.03406113 0.10891075 -0.03316745
-0.06678239 0.09179001 -0.03783903
0.17900242 0.01798671 -0.00133068
-0.12799573 -0.04343973 -0.01146905
-0.06716058 0.20360145 -0.03209148
-0.06490391 -0.13102810 -0.03539652
0.12874871 0.01336620 -0.00642148
-0.08645558 -0.18205784 -0.04104328
-0.01842036 0.36621457 -0.02939314
-0.23073287 -0.01684843 0.02469398
-0.12970339 0.03821183 -0.04269515
0.18527846 0.00732403 -0.00864061
0.12057589 -0.02361814 0.01714522
0.03231891 -0.32886952 -0.03252682
0.00915153 -0.12084416 -0.03695363
-0.03842084 0.03988782 -0.02325258
0.22631332 -0.01079141 -0.00493609
0.04117936 -0.29589218 -0.03479077
0.02040930 -0.21648394 -0.03544547
-0.04174541 0.29132724 -0.02440399
-0.07537536 0.04277604 0.00671977
-0.08269378 -0.06783026 -0.04295068
-0.19220838 -0.02926155 0.02313733
0.01473438 0.03869912 -0.02364105
-0.02155937 0.25266689 -0.02642013
-0.26412222 0.00504867 0.01811418
0.01486232 0.03150502 -0.01972081
-0.13940452 0.03911984 -0.05110358
-0.05568315 0.16832970 -0.03286645
0.00945639 -0.04393065 -0.04339230
0.23741497 -0.02850961 0.01940544
0.29703188 0.00109291 -0.02370615
0.22122258 -0.00650710 -0.03504439
-0.09167669 -0.34854698 -0.02924588
-0.29372257 -0.02267642 -0.03335008
0.00404311 -0.04144619 0.00726593
-0.04696254 -0.35532188 -0.02608747
0.13263007 0.02235238 -0.03066126
0.14603934 0.02293116 0.01603518
0.00055927 0.03894022 0.01906145
0.26660237 0.00745036 -0.03081886
-0.30734578 -0.01680667 -0.02824316
-0.07261133 0.36065578 -0.03443708
-0.02166690 -0.03737340 -0.02704403
0.27397081 -0.03923422 0.03738999
-0.07393208 -0.05250531 -0.03875242
-0.04582413 0.03748724 -0.00740838
-0.04521171 -0.33317548 -0.02242089
-0.29489228 -0.02513559 -0.02074395
-0.30552348 -0.00378149 -0.00869710
-0.00014031 0.13353685 -0.03484927
0.03133970 -0.16925423 -0.04130932
-0.03527049 -0.09960474 -0.03402436
-0.22201675 -0.00296977 0.03279104
-0.02627533 -0.23468876 -0.02746269
-0.17986688 -0.03971284 0.01202468
-0.23000610 -0.02616939 -0.04055992
-0.07076620 -0.04810560 0.00652079
-0.03462918 0.34750336 -0.02199898
-0.30851865 0.00696011 -0.01197714
-0.00065168 -0.03326283 -0.02477628
0.00318561 0.28543532 -0.02773982
0.29283091 0.00278060 0.00635545
-0.15768713 -0.04060823 -0.01306394
-0.09412447 -0.18811607 -0.04026702
0.02650966 0.02998065 -0.03792823
0.21729688 0.01299137 -0.00383342
0.11945281 0.02723918 -0.00179435
-0.30533800 -0.01729962 -0.01741982
0.13532092 -0.01855295 -0.03497197
-0.01527858 0.34279794 -0.02262929
-0.20040007 0.02628274 -0.04802158
0.15367104 0.01348178 -0.02007926
0.19411446 -0.01965324 0.00022359
-0.02933206 0.04023285 0.00005644
-0.00625016 -0.12956385 -0.03455372
0.00308308 -0.04122780 -0.03900618
0.16679466 -0.02004736 -0.01054174
-0.08198324 0.28500599 -0.03081117
0.14775334 -0.02307666 -0.02410261
0.28554037 -0.00417921 -0.03136644
0.17983092 0.01975828 -0.02838371
0.02293391 0.12678638 -0.04051249
0.00567187 0.36361188 -0.03087327
0.08712991 0.02855485 -0.01739742
-0.18981312 -0.02970242 -0.04808940
-0.20392945 -0.02541529 0.02621947
-0.08990400 -0.12612949 -0.04164943
-0.06976771 0.34915644 -0.02273401
-0.02631064 -0.28329939 -0.02470846
-0.02392352 0.33608282 -0.02226877
-0.09270389 -0.08554005 -0.04479648
0.01899957 -0.03218614 -0.01500950
-0.04786326 -0.04898392 0.00514958
-0.09294444 -0.07043124 -0.04315877
-0.24870108 0.02934493 0.00519257
-0.13458869 -0.03524470 -0.00786478
-0.07507540 -0.30807328 -0.02708410
0.10038669 -0.03187485 -0.02635237
0.04082812 0.17401892 -0.04190425
0.04514764 0.02629590 -0.03868723
-0.09062639 0.03719674 -0.03318138
-0.06682178 -0.03783848 -0.01700992
0.23889914 0.02987804 0.01825717
-0.09334280 0.20776294 -0.03949078
0.16269998 -0.02035267 -0.03586797
0.01652891 -0.25178319 -0.03229521
0.03342620 -0.03126732 -0.03156353
-0.06719203 0.04072130 -0.03549919
0.07326512 -0.02440034 -0.01132063
-0.21686535 -0.02560642 0.02223889
-0.08307309 0.06172121 -0.04935687
0.03283723 0.30536908 -0.03270525
-0.01627478 -0.18988171 -0.03046251
-0.14321588 -0.03699629 -0.01600674
-0.12050969 0.03578757 0.02238251
0.03957947 -0.09668213 -0.04551008
0.02126506 0.03694379 -0.04459230
0.07535028 -0.02394884 -0.03618039
-0.22671534 0.03403454 0.01240785
0.01312908 -0.03873579 0.01314797
-0.01882511 -0.28592145 -0.02547051
-0.08434775 0.29307812 -0.03306318
0.00892391 -0.34432268 -0.02665822
0.02857058 -0.26080298 -0.03427698
-0.03624820 0.30994231 -0.02370121
0.28261867 0.02755427 0.02105038
0.13765435 -0.02153817 -0.01649196
-0.22091107 -0.02878578 -0.03598341
-0.00876880 0.33036083 -0.02325584
-0.01508876 -0.26864505 -0.02597905
-0.08986592 -0.09926100 -0.04313702
-0.07246411 0.24706973 -0.03004459
-0.27950424 -0.02710772 -0.02102083
-0.27019891 -0.03154539 -0.01038692
-0.00530501 -0.35330504 -0.02502658
-0.00859609 0.27938116 -0.02652245
0.02814368 0.08783995 -0.04469816
-0.16374233 -0.03327996 -0.05094806
-0.07566096 0.03699658 -0.00621515
-0.17670512 -0.03476012 -0.01680066
0.02588414 -0.03572586 -0.03362402
-0.00137213 -0.03723009 -0.01132233
-0.15672408 0.04120652 -0.02959825
-0.06249231 0.22098285 -0.03021727
-0.19648138 -0.03235357 -0.04417906
-0.27561021 -0.02719327 0.00473503
-0.00211565 0.25801194 -0.02824612
-0.07812534 -0.15863851 -0.03656849
-0.12154569 0.01066829 -0.05922890
-0.22539243 -0.03811768 -0.01161136
0.10483247 0.02118551 -0.00941927
0.26703426 0.02086308 0.02356436
0.20116425 -0.01231851 0.00237607
0.30676416 -0.00060636 0.00293887
-0.04151205 -0.10926265 -0.03441606
-0.24692525 -0.01542649 0.02055061
0.19052951 -0.01060899 0.01956211
0.15869184 0.01349300 -0.01092077
-0.19250822 0.03577199 0.01447491
0.27560553 -0.02686295 0.01865952
-0.05531213 0.04172588 -0.01637277
-0.04106203 -0.30692554 -0.02522878
-0.14414345 0.03910677 -0.02567099
0.21392460 0.01244030 -0.01320229
-0.23566763 -0.03260030 -0.02608285
0.16168055 0.02352835 0.01241343
-0.09665233 0.04042306 -0.03737852
-0.07843538 0.05140082 -0.01969826
-0.05827002 0.15302040 -0.03197735
-0.10902371 -0.03897037 -0.03114017
-0.28917557 0.02454505 -0.03446762
0.19989930 -0.01693858 -0.02534904
-0.17468715 -0.03592363 -0.02694343
-0.15437260 -0.03466477 -0.00604513
-0.00708336 -0.21630441 -0.02936229
-0.12254532 -0.03994764 -0.04666883
0.05011293 0.02966037 -0.02835535
0.26259342 -0.03699270 0.02502835
0.01587243 -0.18914370 -0.03421007
-0.25597093 0.03602267 -0.02396044
0.28362903 -0.00486484 0.00844540
-0.08393273 -0.25057185 -0.03758994
-0.05057070 -0.13763617 -0.03223152
0.21110554 0.02160875 0.01231754
-0.30711669 0.01665268 -0.01565269
0.02927681 0.20070557 -0.03858133
-0.02770175 -0.04139613 0.01976121
-0.01219231 -0.04660722 -0.03609501
0.00396942 -0.33724493 -0.02535598
-0.06417234 0.23748258 -0.02898904
-0.29742977 -0.01080031 0.00030190
-0.10939831 -0.04350771 -0.01537858
0.19008443 0.01299315 0.01036182
-0.08175252 0.23275784 -0.03475117
0.09685916 0.02522212 -0.01994330
-0.07644125 -0.04731318 -0.01292639
-0.18742982 -0.03733922 -0.00176445
-0.10004676 0.04771028 0.00108953
-0.00128965 0.03434132 -0.00179210
0.27788928 -0.00339373 -0.01239021
-0.19769049 -0.03978282 -0.02702016
-0.06724132 0.11741716 -0.03742997
0.20308797 -0.00674954 0.00856463
-0.07050827 -0.04205347 -0.02569088
0.29481199 -0.00278906 -0.04589752
0.07295936 -0.03027085 -0.02876673
0.24444334 -0.00412510 0.01631763
-0.01680234 0.03419474 -0.01497529
0.03433254 0.03158029 -0.02530221
0.02992941 -0.03633657 0.01016092
0.00881759 -0.21991469 -0.03143653
-0.17076069 -0.04252827 -0.01666219
0.01979752 0.07494716 -0.04268500
0.19020317 -0.00688088 -0.00874503
-0.15010068 0.03081535 -0.04737261
-0.10177936 -0.04550779 -0.02014009
0.23892133 -0.00540668 -0.00485634
0.29050657 -0.00194897 -0.02073047
-0.02587652 -0.29973584 -0.02437578
-0.32467049 0.00110197 -0.01600800
0.14960128 -0.01718963 0.02153762
-0.05249106 0.17683674 -0.03161530
0.03127893 -0.20866212 -0.03962056
-0.16399249 -0.03369104 -0.00466235
-0.09670885 0.04318526 -0.04939789
0.09587737 -0.02539781 0.00882662
-0.03349727 0.03650797 0.02027509
0.30745491 -0.04174277 0.03817103
-0.03881758 0.17549290 -0.03135082
-0.05186916 -0.07501219 -0.03678360
-0.08763219 0.20268893 -0.03808335
-0.03849716 0.04741273 -0.03558262
-0.07829255 0.08702616 -0.04040879
0.04553103 0.03198176 -0.00285160
0.18729682 0.01480224 -0.03665720
-0.09036266 -0.30448276 -0.03360329
0.08525143 0.03243499 -0.02497483
-0.13772675 -0.04452494 0.00070989
0.22725281 0.00878033 -0.00635219
0.03464448 -0.31070983 -0.03288061
-0.08596466 -0.11934923 -0.04419363
-0.06293960 -0.11858519 -0.03561045
0.10627355 -0.02647762 -0.01333545
0.24673624 -0.01061507 -0.03206374
-0.28375772 0.02657616 -0.00058345
0.28046101 0.01948918 0.01340954
0.28642112 0.00387876 -0.00301098
0.00195527 -0.36797297 -0.02460420
-0.00557971 -0.03999057 -0.02475709
0.03062651 0.09556292 -0.04515447
0.08300105 -0.02824187 -0.03679130
-0.04164048 0.31887293 -0.02269861
0.01834063 0.32685208 -0.02751736
-0.14509019 -0.03675784 -0.03246752
-0.08211426 -0.28612256 -0.03090128
-0.00763470 -0.13972017 -0.03337649
-0.07904885 0.22527333 -0.03291772
-0.09231143 0.03907968 0.01722183
0.24380912 0.03355914 0.03065052
-0.00848626 -0.36008328 -0.02309197
0.06250101 -0.03020260 0.01413538
-0.15648873 -0.03880497 -0.05053394
-0.04659549 -0.03946164 0.00987828
0.28266749 0.00318638 -0.02221281
-0.16291448 0.03000988 -0.04852792
0.30525106 0.00027405 -0.01548944
-0.23409688 0.03471346 -0.00993420
0.00048258 -0.09793218 -0.03668641
-0.18046446 -0.03071300 0.02411843
-0.23872849 0.02306092 0.01869216
0.31517276 0.00021134 -0.02240096
-0.04289006 0.08619275 -0.03486870
-0.01397325 0.08513439 -0.03628146
0.21741381 0.01723863 -0.02718763
-0.03617312 -0.03375199 -0.00438422
0.00996343 0.12117397 -0.03803438
-0.01231126 -0.24307223 -0.02763419
0.07458314 0.02970922 -0.03156832
0.27071160 -0.00631923 -0.00614257
-0.00972642 0.07306211 -0.03747318
0.29080454 0.00488885 -0.01223416
0.02091820 0.05820310 -0.04399864
-0.05390070 0.34213489 -0.05344877
0.01002710 -0.02969289 -0.00658754
-0.27689254 0.02878379 -0.02331119
-0.02669876 -0.04234156 -0.03619002
-0.04580754 -0.36099160 -0.03454520
-0.20124580 -0.03298813 -0.01798702
-0.03230056 -0.35612100 -0.03662513
-0.07607206 0.13286011 -0.03656879
0.01174028 -0.03209137 -0.03451464
-0.31238219 0.00739371 -0.03072643
-0.24983281 -0.03110899 -0.03135718
-0.17783627 -0.03449519 -0.03653173
-0.16299745 -0.03567020 -0.02464744
0.21627186 -0.02198604 0.01245315
-0.19025603 0.03995483 -0.02099682
0.05421807 0.04122687 -0.03980909
-0.05274458 0.25155067 -0.02748680
-0.03259365 -0.24900667 -0.02598501
0.26856095 0.00146304 -0.00278335
-0.20163800 -0.00651222 0.03388122
-0.07439926 -0.17164357 -0.03632868
0.25523052 0.01461514 0.01619766
-0.02238714 -0.24279261 -0.02740703
0.20929345 0.02175617 0.00208647
-0.04116547 -0.28312689 -0.02559553
0.02833796 0.07469426 -0.04581974
-0.02018807 0.03618209 -0.02471348
0.19423890 -0.00114250 0.02363601
-0.03528475 0.13888131 -0.03205191
-0.01598620 0.12552941 -0.03346291
0.02122204 -0.03642894 0.00289432
0.19813076 0.00814519 0.02330929
0.03191201 0.20798615 -0.03865619
-0.04746120 0.28537321 -0.02452775
0.04227399 0.03702854 0.00190426
-0.00652998 -0.33704805 -0.02256139
-0.02252988 -0.31561744 -0.02309238
-0.05414985 0.20816463 -0.02918303
0.09814353 0.01924866 -0.03929121
0.08488651 -0.02768142 -0.02312639
-0.27807891 -0.02884279 -0.00230503
0.29729515 -0.00139037 -0.00843358
-0.00760810 0.03668704 0.01244910
-0.06487088 0.14433467 -0.03424337
-0.09728894 0.12158534 -0.04149222
0.13635300 -0.02063654 0.01395090
-0.26544109 0.03307249 -0.02114160
0.01048658 -0.15642180 -0.03527742
0.12850963 -0.01444989 0.00420318
0.02505420 -0.04016393 -0.04466245
-0.17050989 0.03368443 -0.05159040
0.24681389 -0.01584295 0.00506905
-0.06691733 0.03960606 -0.00534106
0.10226124 0.02985008 -0.02351204
-0.11307389 -0.03630149 -0.00646578
0.10880005 0.02134584 0.02239203
-0.00841199 0.03409366 -0.02495833
-0.26839417 0.03209553 0.00263347
-0.01329466 0.04043726 -0.00960685
0.23097013 -0.01585687 -0.02579424
0.27757528 0.00553213 -0.03446264
-0.00250163 -0.20990647 -0.02977781
-0.06755321 0.13185835 -0.03546149
-0.26207265 -0.00970287 0.01741208
-0.05927468 -0.13985437 -0.03383421
0.23900560 -0.03419655 0.02981842
-0.11601675 -0.04107089 -0.04110525
0.09680478 -0.02850344 -0.01786256
0.01983154 -0.19558698 -0.03479102
0.02337231 -0.03512892 -0.02267641
0.24995080 0.01583957 0.00037885
0.19596896 0.01472785 -0.01282689
-0.16028430 -0.04260337 -0.02651794
-0.09757002 -0.03789290 -0.03884503
0.19417879 0.02089881 0.00437911
0.12297143 -0.02075222 -0.01965444
-0.19801275 0.03659039 -0.03362694
-0.07945084 0.20206422 -0.03548068
-0.06894375 -0.03715138 0.02141276
-0.22679090 0.03838469 0.00450103
-0.08330477 0.35488242 -0.02858939
-0.17544487 0.03775115 -0.02601188
-0.29781651 -0.01430886 -0.03733966
0.04184577 -0.27253097 -0.03610228
-0.07232339 0.10698525 -0.03855669
0.03828378 0.16236588 -0.04208233
0.02453099 0.23341361 -0.03444380
-0.05674214 -0.04440007 -0.00897579
0.07781816 0.02728910 -0.00285733
-0.17514890 -0.03402126 -0.04439609
0.25640339 -0.00529474 -0.00990221
-0.13131602 0.03786799 -0.02111497
-0.11080772 0.03707408 -0.03524296
-0.01321919 -0.03909250 -0.01334364
0.29093552 0.00736854 0.01260850
0.29869896 -0.00590101 0.00026901
0.31359479 0.00630737 -0.01137353
-0.05959107 -0.04182497 0.00836495
0.00582414 -0.03497849 0.01359132
0.08211417 0.02227366 0.02072607
-0.21698107 0.04029886 -0.02044193
-0.04730567 -0.25145203 -0.02706151
-0.05529486 0.04078250 -0.02610458
0.26091772 -0.00746523 -0.03238663
0.20339198 0.01004893 0.01627738
-0.23647152 -0.03266007 -0.03409232
-0.00537945 -0.04059809 0.00384605
0.21860032 -0.00449897 0.01251144
-0.05601945 -0.30253392 -0.02396613
-0.04719099 -0.34698784 -0.05416313
-0.07520995 -0.19374575 -0.03388730
-0.00827877 -0.10168332 -0.03552212
0.23040469 0.01138893 -0.02735014
-0.00718543 0.33818430 -0.02368721
-0.01750731 0.20818697 -0.02954064
-0.00448097 -0.36000651 -0.03285499
-0.06028115 0.25212544 -0.02778735
-0.23397161 0.01437850 0.02587951
-0.04431954 0.04401480 0.01469511
-0.16191430 0.03918431 0.00124680
0.07229154 0.03202743 0.00232612
-0.09096682 -0.34293991 -0.03425287
0.03333955 -0.23428920 -0.03730677
-0.11517560 -0.04058711 -0.00066556
-0.15108150 -0.04335283 -0.02091426
0.21463315 0.01631822 0.00814642
-0.29528099 0.02138137 -0.00443258
0.07597923 -0.02800019 0.00185420
0.29691532 0.00766436 -0.01986111
-0.02478408 0.35362881 -0.03809972
0.03709996 -0.03724695 -0.02706620
-0.18462713 0.03305954 -0.01710726
-0.25424090 -0.02923504 -0.04340998
-0.15785742 -0.03812831 -0.04040300
0.13415350 -0.01242087 0.02394299
0.00636391 -0.03964500 -0.00939831
-0.15471998 -0.03504225 -0.02588463
-0.03586419 -0.08477386 -0.03570167
-0.18793930 -0.03977740 -0.02832458
-0.00590584 0.36523736 -0.02483354
-0.06866959 -0.15550220 -0.03408661
0.28608930 -0.02144344 0.01607829
-0.24172276 -0.03107027 -0.01963407
-0.08893180 0.11321646 -0.04496526
0.08521057 -0.02850215 -0.00803860
0.06635454 -0.02212892 -0.04305074
0.22462127 0.00197316 -0.00799842
0.01411679 -0.01725627 -0.02886294
0.16756774 -0.02565821 0.00306178
0.07431260 0.02746434 -0.04112481
-0.25085106 -0.03493408 -0.00929839
0.11599601 -0.01804857 0.01912346
-0.18374097 -0.03933397 -0.00937192
0.20325226 0.01559186 -0.03138766
-0.04274870 -0.26808739 -0.02595005
-0.08382893 -0.23987766 -0.03336888
-0.26498413 0.02561627 -0.04288434
-0.03655238 0.05600566 -0.03670189
-0.06902746 -0.10778721 -0.03597437
-0.10852421 -0.04149025 -0.04844280
0.20318311 -0.00438361 -0.01127356
-0.10063670 0.03985814 -0.01811943
0.06493679 0.03051106 -0.00006408
0.25732392 0.00878277 -0.02409342
-0.23029479 0.03213212 -0.01581282
0.25149566 -0.02070444 0.02268614
-0.01563109 -0.03762775 -0.02213163
0.02331216 0.35354930 -0.03312390
0.00256325 -0.01696313 -0.02638674
-0.03391777 -0.34931546 -0.02235329
-0.28354287 -0.00660583 0.00978824
0.32034341 -0.00057792 -0.01576748
-0.29566124 -0.02226387 -0.00458758
0.17370169 0.01604376 -0.01396526
-0.07423912 0.26139730 -0.03227182
