5.556043982505798340e-02 -3.069434314966201782e-02 -4.205134510993957520e-02
4.620610177516937256e-02 -3.182467818260192871e-02 -1.830192096531391144e-02
-6.150557659566402435e-03 -3.593371435999870300e-02 -1.572235114872455597e-02
6.563894450664520264e-03 -3.438718244433403015e-02 -4.436618834733963013e-02
3.758781030774116516e-02 -3.327696025371551514e-02 -1.537651009857654572e-02
2.921646460890769958e-02 -9.059043228626251221e-02 -4.357814788818359375e-02
-1.577039994299411774e-02 -3.536352887749671936e-02 -1.887007802724838257e-02
-1.327817328274250031e-02 -3.874386101961135864e-02 1.499465294182300568e-02
1.993078738451004028e-02 -3.443159535527229309e-02 -7.049310952425003052e-03
-1.622636243700981140e-02 -3.735106065869331360e-02 -2.652584575116634369e-02
5.494673550128936768e-02 -3.007066622376441956e-02 -3.404930979013442993e-02
-9.157130494713783264e-03 -4.129641875624656677e-02 -3.817216306924819946e-02
1.952454447746276855e-03 -9.846643358469009399e-02 -4.003583639860153198e-02
-3.744460642337799072e-03 -3.819857910275459290e-02 -2.001671120524406433e-02
-2.385824918746948242e-04 -3.646843507885932922e-02 -1.137739792466163635e-02
1.531389355659484863e-02 -3.634851798415184021e-02 -7.780278101563453674e-03
4.522234946489334106e-02 -3.145917132496833801e-02 -1.722738519310951233e-02
3.943420946598052979e-03 -9.626091271638870239e-02 -3.546998649835586548e-02
2.296046912670135498e-02 -9.723149240016937256e-02 -4.131664335727691650e-02
-9.398106485605239868e-04 -8.847650885581970215e-02 -4.044803604483604431e-02
-2.206747792661190033e-02 -3.887495771050453186e-02 -1.848198473453521729e-02
4.182444885373115540e-03 -3.541198372840881348e-02 -1.851870864629745483e-02
-1.034322660416364670e-02 -3.811149671673774719e-02 -2.926585264503955841e-02
5.433426052331924438e-02 -3.079311177134513855e-02 -2.578860148787498474e-02
-2.677051350474357605e-03 -3.902840241789817810e-02 -3.778265789151191711e-02
1.306578144431114197e-02 -3.391677513718605042e-02 -2.658917009830474854e-02
2.339362725615501404e-02 -6.295210123062133789e-02 -4.380327463150024414e-02
4.701294749975204468e-02 -3.196834772825241089e-02 -1.720298081636428833e-02
-1.956073753535747528e-02 -3.850300237536430359e-02 -2.652020379900932312e-02
-1.104434952139854431e-02 -3.884108737111091614e-02 1.605716533958911896e-02
2.061878889799118042e-02 -3.561628237366676331e-02 3.542767837643623352e-03
1.048838905990123749e-02 -3.520521149039268494e-02 -2.919230610132217407e-02
3.829076886177062988e-04 -3.622259944677352905e-02 -4.040816426277160645e-02
1.069985330104827881e-02 -3.423168137669563293e-02 -3.460462391376495361e-02
4.039883613586425781e-03 -3.519570454955101013e-02 -1.998512260615825653e-02
3.784490376710891724e-02 -3.592605143785476685e-02 9.074153378605842590e-03
3.388194367289543152e-02 -3.089293837547302246e-02 -2.807874605059623718e-02
-1.838854141533374786e-02 -3.829479217529296875e-02 -2.267305739223957062e-03
3.495706245303153992e-02 -3.182579949498176575e-02 -1.610995456576347351e-02
3.959936648607254028e-02 -3.301476314663887024e-02 -9.372854605317115784e-03
4.842560738325119019e-02 -3.014402277767658234e-02 -2.976120635867118835e-02
3.009153157472610474e-02 -3.321374580264091492e-02 -3.521309420466423035e-02
1.499949395656585693e-02 -3.542521223425865173e-02 -4.160489886999130249e-02
8.725751191377639771e-03 -9.056088328361511230e-02 -4.139364510774612427e-02
2.477984502911567688e-02 -3.186113387346267700e-02 -4.608205333352088928e-02
2.165631204843521118e-02 -3.385909646749496460e-02 1.395242288708686829e-03
5.021364986896514893e-02 -3.215680643916130066e-02 -2.772876247763633728e-02
1.132448576390743256e-02 -7.601114362478256226e-02 -3.939034044742584229e-02
8.900543674826622009e-03 -3.521331399679183960e-02 -3.241662681102752686e-02
4.229430854320526123e-02 -3.125360235571861267e-02 -2.971893176436424255e-02
5.591407418251037598e-02 -3.041035495698451996e-02 -2.082245051860809326e-02
3.693876042962074280e-02 -3.380790352821350098e-02 -2.499774470925331116e-02
1.381941884756088257e-02 -8.868105709552764893e-02 -3.880380839109420776e-02
3.262699767947196960e-02 -3.180896118283271790e-02 -2.640217542648315430e-02
3.251004591584205627e-02 -3.052041307091712952e-02 -4.756502807140350342e-02
7.319413125514984131e-04 -3.571055829524993896e-02 -3.477282822132110596e-02
-1.676041074097156525e-02 -3.836589679121971130e-02 -2.142222970724105835e-02
-8.074740879237651825e-03 -3.555364161729812622e-02 5.364622920751571655e-03
4.020816087722778320e-02 -3.063881397247314453e-02 -4.788761585950851440e-02
-2.530055120587348938e-03 -3.770081698894500732e-02 1.585898920893669128e-03
-2.612059749662876129e-02 -3.975573554635047913e-02 -1.199832558631896973e-02
2.999258786439895630e-02 -3.360443934798240662e-02 -2.149547450244426727e-02
1.633651554584503174e-04 -3.972585871815681458e-02 -3.344959020614624023e-02
-2.705203369259834290e-02 -4.057945683598518372e-02 -1.813236624002456665e-02
1.664797216653823853e-02 -3.419572487473487854e-02 -2.891741320490837097e-02
4.277195408940315247e-02 -3.192503005266189575e-02 -3.088641911745071411e-02
1.121564209461212158e-02 -1.077880412340164185e-01 -3.936002403497695923e-02
-2.026447094976902008e-02 -3.975960984826087952e-02 -2.346938848495483398e-02
8.473956957459449768e-03 -3.518483787775039673e-02 -8.062668144702911377e-03
1.246516779065132141e-02 -9.879263490438461304e-02 -3.730405122041702271e-02
1.934845000505447388e-02 -9.409645199775695801e-02 -4.034812375903129578e-02
2.496385201811790466e-02 -3.318420797586441040e-02 -3.698335029184818268e-03
-8.091975003480911255e-03 -3.465730696916580200e-02 -2.726432494819164276e-02
2.549198642373085022e-02 -3.195932880043983459e-02 -2.548331767320632935e-02
-2.627240307629108429e-02 -3.936321288347244263e-02 1.772846467792987823e-02
-3.622475080192089081e-03 -3.873258829116821289e-02 -3.682718798518180847e-02
2.907732501626014709e-02 -3.219347447156906128e-02 -2.091934718191623688e-02
1.378844305872917175e-02 -3.382935002446174622e-02 -1.509136240929365158e-02
2.971397712826728821e-03 -3.773310035467147827e-02 -2.821627818048000336e-02
-1.305704936385154724e-02 -3.833118826150894165e-02 5.408730357885360718e-03
1.812762767076492310e-02 -3.402013704180717468e-02 -3.389299288392066956e-02
3.176083415746688843e-02 -1.081159189343452454e-01 -4.115408658981323242e-02
5.663726478815078735e-02 -3.124476596713066101e-02 -3.968146443367004395e-02
5.941257625818252563e-02 -3.011750243604183197e-02 -2.935931086540222168e-02
4.745547473430633545e-02 -3.386439010500907898e-02 -1.915344409644603729e-02
-1.133062411099672318e-02 -3.650709614157676697e-02 -2.491797320544719696e-02
5.136868357658386230e-02 -3.158031404018402100e-02 -2.178513631224632263e-02
2.450975030660629272e-02 -3.108786046504974365e-02 -3.615678101778030396e-02
4.157533124089241028e-02 -3.138867765665054321e-02 -4.606464505195617676e-02
6.708642467856407166e-03 -3.447414189577102661e-02 -2.789666876196861267e-03
3.638708591461181641e-02 -3.206401318311691284e-02 -2.965341322124004364e-02
-2.790712565183639526e-02 -4.124658554792404175e-02 -3.022520989179611206e-02
2.400886639952659607e-02 -1.057266667485237122e-01 -4.137183725833892822e-02
-2.510830946266651154e-02 -4.131392762064933777e-02 -3.334404528141021729e-02
1.561122015118598938e-03 -3.413212299346923828e-02 -1.785276830196380615e-02
3.137805312871932983e-02 -3.382743149995803833e-02 -1.938525959849357605e-02
-2.631618455052375793e-02 -3.984194993972778320e-02 -2.069852128624916077e-02
2.162922173738479614e-03 -1.027730703353881836e-01 -3.825135156512260437e-02
-7.153192535042762756e-03 -4.231563955545425415e-02 -3.876559436321258545e-02
1.630965620279312134e-02 -3.351544961333274841e-02 -1.058827526867389679e-02
2.501665800809860229e-02 -6.471687555313110352e-02 -3.988383710384368896e-02
3.220114111900329590e-02 -3.098827041685581207e-02 -4.112198576331138611e-02
-2.675388008356094360e-03 -3.831866011023521423e-02 -2.392693981528282166e-02
-1.342688873410224915e-02 -3.505885601043701172e-02 4.919992759823799133e-03
4.180227220058441162e-02 -3.389127925038337708e-02 -4.809860140085220337e-02
-1.943485252559185028e-02 -3.930036723613739014e-02 -1.078004948794841766e-02
-1.114912703633308411e-02 -3.646235913038253784e-02 -4.412739537656307220e-03
-1.826353743672370911e-02 -3.876351192593574524e-02 7.487012073397636414e-03
4.220080003142356873e-02 -3.120430931448936462e-02 -3.824423253536224365e-02
2.018178999423980713e-02 -3.322791308164596558e-02 -5.308163352310657501e-03
-2.747783251106739044e-02 -3.764429315924644470e-02 -2.652975916862487793e-02
1.595447957515716553e-02 -3.742729499936103821e-02 5.479851737618446350e-03
-2.406221255660057068e-02 -4.062947258353233337e-02 -2.888401784002780914e-02
8.775411173701286316e-03 -1.019733697175979614e-01 -3.981788828969001770e-02
1.507053151726722717e-02 -3.237089887261390686e-02 -2.577796392142772675e-02
-1.765443570911884308e-02 -3.798275440931320190e-02 3.561818972229957581e-03
-7.504431530833244324e-03 -3.730179741978645325e-02 3.675870597362518311e-03
2.867369726300239563e-02 -9.531563520431518555e-02 -4.429332911968231201e-02
4.720015078783035278e-02 -2.693485841155052185e-02 -4.787375032901763916e-02
1.801758632063865662e-02 -3.587984293699264526e-02 1.277554407715797424e-02
-1.706658117473125458e-02 -3.845486044883728027e-02 -3.290375322103500366e-02
3.845899552106857300e-02 -3.001127578318119049e-02 -3.664695844054222107e-02
1.093557104468345642e-02 -3.496867790818214417e-02 -1.872390136122703552e-02
-1.909952610731124878e-03 -3.730838000774383545e-02 -3.126010671257972717e-02
4.133798927068710327e-02 -2.976741082966327667e-02 -4.843561351299285889e-02
-1.645080558955669403e-02 -3.814252838492393494e-02 -2.030153386294841766e-02
-1.677119173109531403e-02 -3.796099126338958740e-02 -6.394164636731147766e-03
1.283322647213935852e-02 -3.764660283923149109e-02 8.335774764418601990e-03
-1.567380875349044800e-02 -3.893952444195747375e-02 -2.851980552077293396e-02
1.582733169198036194e-02 -2.979659475386142731e-02 -3.558076918125152588e-02
3.926569223403930664e-02 -3.062170371413230896e-02 -4.347771406173706055e-02
2.226506546139717102e-02 -3.092079050838947296e-02 -4.621312767267227173e-02
1.849518716335296631e-02 -1.056266650557518005e-01 -3.845063224434852600e-02
5.224551260471343994e-02 -2.845744788646697998e-02 -4.677654802799224854e-02
-2.220005914568901062e-02 -4.206957295536994934e-02 1.382276415824890137e-02
-2.636146359145641327e-02 -4.068136960268020630e-02 -1.879700645804405212e-02
2.442026883363723755e-02 -3.226138278841972351e-02 -4.412462562322616577e-02
-1.469433493912220001e-02 -3.692479431629180908e-02 -2.419446595013141632e-02
6.391180679202079773e-03 -3.610072657465934753e-02 -7.134832441806793213e-03
1.775631681084632874e-03 -8.628367632627487183e-02 -3.846406936645507812e-02
1.804041489958763123e-02 -3.775987774133682251e-02 6.474094465374946594e-03
5.282347649335861206e-02 -3.020529262721538544e-02 -2.134333178400993347e-02
4.134561866521835327e-03 -3.884934261441230774e-02 -3.532095253467559814e-02
-2.347003482282161713e-02 -3.829999268054962158e-02 7.072649896144866943e-05
-3.655896522104740143e-03 -3.600008785724639893e-02 -4.295400157570838928e-02
1.086164265871047974e-03 -3.783075511455535889e-02 -1.647810824215412140e-02
1.987898722290992737e-02 -5.653739720582962036e-02 -3.968893736600875854e-02
5.598539113998413086e-02 -2.830591239035129547e-02 -4.809724539518356323e-02
1.022834144532680511e-02 -3.460080549120903015e-02 -1.599662750959396362e-02
1.934678852558135986e-02 -3.465734422206878662e-02 -5.215096287429332733e-03
1.548463478684425354e-02 -3.323018550872802734e-02 -2.736043371260166168e-02
1.995272934436798096e-02 -3.729732707142829895e-02 1.526228897273540497e-02
-7.294740527868270874e-03 -3.420552238821983337e-02 -2.382687479257583618e-02
3.581325337290763855e-02 -3.237529098987579346e-02 -1.595970243215560913e-04
1.514440774917602539e-02 -3.562214225530624390e-02 2.014791779220104218e-02
-1.876962929964065552e-02 -3.775103390216827393e-02 -3.403797745704650879e-05
1.791389286518096924e-02 -3.254188224673271179e-02 -2.106972411274909973e-02
-9.147023782134056091e-03 -3.453999757766723633e-02 -2.292287535965442657e-02
-3.292985260486602783e-03 -3.761770203709602356e-02 -8.184543810784816742e-03
-6.884093396365642548e-03 -4.129290953278541565e-02 6.913915276527404785e-03
-6.832599639892578125e-03 -1.020756587386131287e-01 -3.747921437025070190e-02
1.197096146643161774e-02 -9.849271923303604126e-02 -3.622775897383689880e-02
-1.438783947378396988e-02 -3.854005783796310425e-02 1.353994011878967285e-02
-8.392017334699630737e-04 -3.429350629448890686e-02 -1.498712226748466492e-03
6.185547262430191040e-02 -2.951690927147865295e-02 -4.062515497207641602e-02
4.212796688079833984e-03 -3.657507896423339844e-02 -1.803318038582801819e-03
-1.190561801195144653e-03 -5.479779466986656189e-02 -3.935955092310905457e-02
-1.949578337371349335e-02 -3.718696534633636475e-02 -2.607131376862525940e-02
-2.393405139446258545e-02 -3.925046697258949280e-02 1.825425215065479279e-02
5.010741949081420898e-02 -3.011537156999111176e-02 -4.932252317667007446e-02
7.812082767486572266e-04 -1.138523072004318237e-01 -3.649535775184631348e-02
-2.207218483090400696e-02 -4.036027193069458008e-02 -1.309855468571186066e-02
-1.105816662311553955e-02 -3.713938221335411072e-02 -2.539937384426593781e-02
-2.921824529767036438e-02 -3.987416625022888184e-02 -3.254514560103416443e-02
-1.489855349063873291e-02 -4.120223224163055420e-02 1.625438220798969269e-02
3.401287272572517395e-02 -3.050112724304199219e-02 -4.124560952186584473e-02
-2.806354314088821411e-03 -7.295605540275573730e-02 -3.820563852787017822e-02
-2.534755133092403412e-02 -3.725809603929519653e-02 1.418290659785270691e-03
1.021604984998703003e-03 -3.643713891506195068e-02 1.292436197400093079e-02
2.158863469958305359e-02 -3.577464818954467773e-02 1.129974983632564545e-02
3.477629646658897400e-02 -1.056901291012763977e-01 -4.437976703047752380e-02
-2.159110270440578461e-02 -3.958413749933242798e-02 -2.130813337862491608e-02
4.951266199350357056e-02 -2.964399568736553192e-02 -3.079411387443542480e-02
5.108729749917984009e-02 -2.903381362557411194e-02 -4.442593455314636230e-02
-1.008057314902544022e-02 -3.613878041505813599e-02 1.998413540422916412e-02
3.949157893657684326e-03 -3.885089978575706482e-02 -4.251887649297714233e-02
3.132368996739387512e-02 -1.040297523140907288e-01 -4.271107912063598633e-02
4.010411351919174194e-02 -3.362581878900527954e-02 -2.436978742480278015e-03
-9.083405137062072754e-03 -3.488492593169212341e-02 1.983000151813030243e-02
3.864355012774467468e-02 -4.260550066828727722e-02 -4.564538225531578064e-02
2.598278224468231201e-03 -3.644969686865806580e-02 1.214443519711494446e-02
1.199269853532314301e-02 -3.468048945069313049e-02 -1.900570094585418701e-02
2.240526676177978516e-02 -3.513791039586067200e-02 -2.992209605872631073e-02
-1.640719920396804810e-02 -4.056862741708755493e-02 -3.566772490739822388e-02
2.779019623994827271e-02 -3.152655810117721558e-02 -4.572515189647674561e-02
3.799689933657646179e-02 -3.296664357185363770e-02 -3.238441050052642822e-02
4.927989095449447632e-02 -2.843024581670761108e-02 -4.605572670698165894e-02
-1.489216461777687073e-02 -3.621966764330863953e-02 -2.949070930480957031e-02
-1.889628544449806213e-02 -3.786598518490791321e-02 1.888009719550609589e-02
-2.526447176933288574e-03 -3.515192121267318726e-02 -5.476078018546104431e-03
1.299150288105010986e-03 -3.580630198121070862e-02 -4.251389577984809875e-02
1.343654468655586243e-02 -9.735477715730667114e-02 -3.615945950150489807e-02
6.169725209474563599e-03 -6.574676185846328735e-02 -4.287109896540641785e-02
3.994198516011238098e-03 -3.351190313696861267e-02 -1.884776167571544647e-02
-1.296293549239635468e-02 -3.685443475842475891e-02 -3.928145021200180054e-02
-2.068564109504222870e-02 -3.969751298427581787e-02 -2.510413527488708496e-02
4.752971231937408447e-03 -7.218673080205917358e-02 -3.936031833291053772e-02
3.513645008206367493e-02 -3.361371532082557678e-02 -1.281225308775901794e-02
2.303898707032203674e-02 -3.554077073931694031e-02 2.031663618981838226e-02
4.341285675764083862e-03 -3.589239716529846191e-02 -3.935530781745910645e-02
1.271788403391838074e-02 -3.426430001854896545e-02 -6.019916385412216187e-03
2.320309728384017944e-02 -3.347764909267425537e-02 -4.310923814773559570e-02
1.236116513609886169e-02 -3.180202841758728027e-02 -4.477025941014289856e-02
4.829503595829010010e-04 -1.025632321834564209e-01 -3.929725661873817444e-02
5.166625976562500000e-02 -3.067837655544281006e-02 -1.386474072933197021e-02
2.783457189798355103e-02 -8.821927756071090698e-02 -4.231406748294830322e-02
-2.601644024252891541e-03 -3.648119792342185974e-02 1.978512294590473175e-02
4.232810810208320618e-02 -3.246875479817390442e-02 5.822364240884780884e-03
-3.015058115124702454e-03 -3.840001299977302551e-02 1.584652997553348541e-02
-4.418317228555679321e-03 -3.788981214165687561e-02 8.267858996987342834e-03
1.582641899585723877e-02 -3.524693101644515991e-02 -2.117480710148811340e-02
-2.650685980916023254e-02 -4.191929474472999573e-02 -2.479866147041320801e-02
-6.539901718497276306e-03 -3.764510154724121094e-02 -1.643146574497222900e-02
4.076230525970458984e-02 -3.246095776557922363e-02 -3.034883178770542145e-03
-1.876533217728137970e-02 -3.817377239465713501e-02 2.043088711798191071e-02
3.383659943938255310e-02 -3.311023861169815063e-02 -2.650951594114303589e-02
-8.263358846306800842e-03 -3.658103197813034058e-02 1.819972135126590729e-02
2.787501364946365356e-02 -3.656579554080963135e-02 1.627041213214397430e-02
-2.383528649806976318e-02 -4.007628932595252991e-02 -9.381120093166828156e-03
-5.395766347646713257e-04 -3.667622432112693787e-02 2.028425596654415131e-02
3.128393739461898804e-02 -3.411966934800148010e-02 1.383192092180252075e-02
-2.646215818822383881e-02 -4.018001258373260498e-02 -7.775632664561271667e-03
4.191704466938972473e-02 -3.401096165180206299e-02 -5.015649832785129547e-03
2.453652024269104004e-02 -1.082043275237083435e-01 -4.151809960603713989e-02
9.349143132567405701e-03 -8.858361840248107910e-02 -4.092429205775260925e-02
5.443751811981201172e-03 -3.364440426230430603e-02 -6.237108260393142700e-03
1.168164238333702087e-02 -3.355567902326583862e-02 -3.532312065362930298e-02
-3.255719318985939026e-03 -3.689444810152053833e-02 -1.208340749144554138e-03
-1.980231329798698425e-02 -3.858736529946327209e-02 -3.527020663022994995e-02
-3.156504034996032715e-02 -4.153876751661300659e-02 -2.933126688003540039e-02
5.854044109582901001e-02 -3.128895908594131470e-02 -1.831087470054626465e-02
1.729136705398559570e-02 -3.520562127232551575e-02 1.310264132916927338e-02
-1.997615769505500793e-02 -3.847385570406913757e-02 9.723139926791191101e-03
-3.683678805828094482e-04 -3.745127096772193909e-02 1.201964169740676880e-02
-1.628117449581623077e-02 -3.821240365505218506e-02 2.086850441992282867e-02
-2.382318302989006042e-02 -3.809469193220138550e-02 -2.682837843894958496e-02
4.429912567138671875e-02 -3.004397079348564148e-02 -4.425482451915740967e-02
2.517720311880111694e-02 -3.436971083283424377e-02 -1.934761181473731995e-02
1.822429522871971130e-02 -1.212855279445648193e-01 -4.136633500456809998e-02
1.600173860788345337e-02 -1.162816658616065979e-01 -3.831881284713745117e-02
-9.430192410945892334e-03 -6.230912730097770691e-02 -3.526077046990394592e-02
2.704991027712821960e-02 -3.325765579938888550e-02 -8.972549811005592346e-03
-2.939880825579166412e-02 -3.945123776793479919e-02 -1.809639111161231995e-02
7.856925949454307556e-03 -4.107219353318214417e-02 -4.285650700330734253e-02
-1.886691898107528687e-03 -3.730938583612442017e-02 -3.784696385264396667e-02
5.814742296934127808e-03 -1.067776903510093689e-01 -3.956940770149230957e-02
5.559161305427551270e-02 -2.574771083891391754e-02 -4.746413603425025940e-02
2.623239532113075256e-02 -3.349125385284423828e-02 -2.758497744798660278e-02
3.968933597207069397e-02 -3.326532617211341858e-02 -2.276616171002388000e-02
3.708119690418243408e-02 -2.952849119901657104e-02 -4.643062502145767212e-02
2.927504479885101318e-02 -3.624466061592102051e-02 1.084293611347675323e-02
-3.251149132847785950e-02 -4.056550562381744385e-02 -1.062521710991859436e-03
-2.983574941754341125e-02 -4.057902470231056213e-02 -3.242105990648269653e-02
-3.616223111748695374e-03 -3.711535409092903137e-02 -3.780248016119003296e-02
3.200805187225341797e-02 -3.158314153552055359e-02 -3.425015509128570557e-02
5.509150028228759766e-02 -3.171332180500030518e-02 -1.451801322400569916e-02
-5.506377667188644409e-03 -3.773324564099311829e-02 -4.300612211227416992e-02
2.451631799340248108e-02 -3.547973558306694031e-02 6.392259150743484497e-03
4.142094403505325317e-03 -3.427787125110626221e-02 -3.146458789706230164e-02
8.628621697425842285e-03 -1.165596768260002136e-01 -3.752091526985168457e-02
3.309789299964904785e-02 -3.419166430830955505e-02 5.812140181660652161e-03
3.990851715207099915e-02 -2.951675094664096832e-02 -4.521336406469345093e-02
4.353387281298637390e-03 -5.856840685009956360e-02 -4.054182767868041992e-02
3.414770588278770447e-02 -3.134788945317268372e-02 -2.681800723075866699e-02
-8.804898709058761597e-03 -3.931381925940513611e-02 -2.068443968892097473e-02
-2.666860073804855347e-02 -3.913563489913940430e-02 -1.531745772808790207e-02
2.171984687447547913e-02 -3.450610116124153137e-02 1.045091263949871063e-02
3.496133163571357727e-02 -3.295027464628219604e-02 -1.280852779746055603e-02
-5.743777379393577576e-03 -3.348021954298019409e-02 1.792704872786998749e-02
-8.896693587303161621e-03 -3.877900540828704834e-02 -1.671582646667957306e-02
2.829167246818542480e-02 -3.097807802259922028e-02 -4.490008950233459473e-02
1.228071749210357666e-02 -6.903393566608428955e-02 -4.086071997880935669e-02
2.482777088880538940e-02 -6.113833561539649963e-02 -4.179590195417404175e-02
1.362951099872589111e-02 -6.302529573440551758e-02 -4.311086237430572510e-02
3.037344664335250854e-03 -3.592732921242713928e-02 2.606978639960289001e-03
-1.018617302179336548e-03 -3.763363882899284363e-02 1.367321424186229706e-02
-1.701295748353004456e-02 -3.506884723901748657e-02 2.173664234578609467e-02
4.573604464530944824e-02 -3.213732689619064331e-02 -3.480277955532073975e-03
-8.116358891129493713e-03 -3.651806339621543884e-02 -3.683681041002273560e-02
1.680923625826835632e-03 -3.646373003721237183e-02 -2.047748491168022156e-02
3.273570537567138672e-02 -3.240263834595680237e-02 8.363915607333183289e-03
5.015070736408233643e-02 -3.192595764994621277e-02 -3.864450380206108093e-03
-3.206967562437057495e-02 -4.111592471599578857e-02 -2.332537248730659485e-02
3.069518133997917175e-02 -3.248315677046775818e-02 -3.702050447463989258e-02
-3.838350996375083923e-03 -1.090127527713775635e-01 -3.759337961673736572e-02
-2.392417192459106445e-02 -4.005582630634307861e-02 -9.370351210236549377e-03
-1.254128105938434601e-02 -7.540300488471984863e-02 -4.026604443788528442e-02
7.741151377558708191e-03 -3.359412029385566711e-02 -3.859497234225273132e-02
-4.102382808923721313e-03 -3.271905332803726196e-02 1.945460774004459381e-02
-2.599612623453140259e-02 -3.909846395254135132e-02 6.894182413816452026e-03
3.128940612077713013e-02 -3.281057626008987427e-02 -9.162593632936477661e-04
-2.012634091079235077e-02 -4.165682569146156311e-02 -1.885935291647911072e-02
4.843443632125854492e-03 -3.452859446406364441e-02 -1.586531475186347961e-02
2.510984241962432861e-02 -3.363051638007164001e-02 -1.409431919455528259e-02
3.477328270673751831e-02 -3.427844122052192688e-02 -2.287331037223339081e-02
-2.118149586021900177e-02 -3.816267475485801697e-02 1.434623263776302338e-02
3.812436759471893311e-02 -2.853278815746307373e-02 -4.085350781679153442e-02
4.791159182786941528e-02 -2.926584519445896149e-02 -4.870927333831787109e-02
1.748989522457122803e-02 -3.573581576347351074e-02 9.484186768531799316e-03
1.416534185409545898e-02 -3.688000142574310303e-02 1.962942071259021759e-02
3.227972611784934998e-02 -3.058183752000331879e-02 -4.000402987003326416e-02
-1.269521191716194153e-02 -3.809071704745292664e-02 2.171947248280048370e-02
1.552065834403038025e-02 -3.383474424481391907e-02 1.931544952094554901e-02
-5.275208503007888794e-03 -9.126745164394378662e-02 -3.632847219705581665e-02
-1.422427594661712646e-02 -3.686231002211570740e-02 -3.599813580513000488e-02
-7.586678490042686462e-03 -3.587977588176727295e-02 2.204783074557781219e-02
-1.386203803122043610e-02 -5.743020400404930115e-02 -3.987443447113037109e-02
1.138431951403617859e-03 -3.607692196965217590e-02 -1.632606051862239838e-02
-2.659659832715988159e-02 -4.131296277046203613e-02 1.555992104113101959e-02
-2.543081715703010559e-02 -3.789749369025230408e-02 -3.473968058824539185e-02
1.650242879986763000e-02 -1.062002852559089661e-01 -4.033246263861656189e-02
3.265334665775299072e-02 -3.255724161863327026e-02 2.238437347114086151e-02
1.129252277314662933e-02 -3.582904115319252014e-02 2.074136398732662201e-02
-2.681590057909488678e-02 -4.050192609429359436e-02 -2.481669932603836060e-02
3.468833118677139282e-02 -3.291679546236991882e-02 5.207529291510581970e-03
-2.262108400464057922e-02 -4.057311266660690308e-02 6.334934383630752563e-03
2.489703893661499023e-02 -3.313377499580383301e-02 9.712871164083480835e-03
-1.724638044834136963e-02 -3.793645650148391724e-02 -2.786374092102050781e-02
1.199088059365749359e-02 -3.105434775352478027e-02 -4.239253699779510498e-02
-2.909155562520027161e-02 -3.910723701119422913e-02 -2.479930408298969269e-02
2.747945114970207214e-02 -3.385852277278900146e-02 -1.522940862923860550e-02
1.505737006664276123e-02 -1.154319196939468384e-01 -3.722792863845825195e-02
2.826514095067977905e-02 -1.096789836883544922e-01 -4.229674115777015686e-02
5.369365215301513672e-02 -3.100675903260707855e-02 -3.567636385560035706e-02
-2.403189614415168762e-02 -4.088008776307106018e-02 -3.488616272807121277e-02
2.643534168601036072e-02 -3.275520727038383484e-02 -1.631656102836132050e-02
-5.905255675315856934e-03 -1.027173101902008057e-01 -3.641664609313011169e-02
-6.293865852057933807e-03 -3.764371201395988464e-02 -2.995824068784713745e-02
1.855221018195152283e-02 -1.160152480006217957e-01 -3.838355839252471924e-02
4.605676978826522827e-03 -9.108991175889968872e-02 -3.664854168891906738e-02
-3.321623802185058594e-02 -4.405963793396949768e-02 -3.134609386324882507e-02
2.398530393838882446e-02 -1.196480542421340942e-01 -3.967189788818359375e-02
-2.450295537710189819e-02 -3.890259936451911926e-02 -5.006616935133934021e-03
2.428949624300003052e-02 -3.338450938463211060e-02 -2.723785117268562317e-02
1.765587553381919861e-02 -3.370926156640052795e-02 -2.627442032098770142e-02
2.179959416389465332e-02 -3.271697089076042175e-02 -4.400319606065750122e-02
-2.546339854598045349e-02 -4.043387249112129211e-02 -2.378329820930957794e-02
1.944207772612571716e-02 -3.796537593007087708e-02 1.603915356099605560e-02
-5.288597196340560913e-03 -3.776981681585311890e-02 -2.429045177996158600e-02
2.012355253100395203e-03 -3.279974311590194702e-02 1.982935704290866852e-02
3.329353407025337219e-03 -9.880710393190383911e-02 -3.899301216006278992e-02
-2.939726039767265320e-02 -4.073834046721458435e-02 -1.270139776170253754e-02
-3.050004318356513977e-02 -4.134879633784294128e-02 -2.457997575402259827e-02
3.470282256603240967e-02 -9.469097852706909180e-02 -4.516108706593513489e-02
-1.457409001886844635e-02 -3.792416676878929138e-02 -2.713293768465518951e-03
-2.576834149658679962e-02 -4.021400585770606995e-02 -5.040308460593223572e-03
-2.716541104018688202e-02 -4.917343333363533020e-02 -3.330543637275695801e-02
8.390236645936965942e-03 -3.404602780938148499e-02 1.823058910667896271e-02
-1.782700233161449432e-02 -3.711886331439018250e-02 -3.810308873653411865e-02
2.863978967070579529e-02 -3.709457814693450928e-02 1.429964043200016022e-02
2.059820666909217834e-02 -1.051239222288131714e-01 -4.120476543903350830e-02
3.414099290966987610e-02 -3.186099976301193237e-02 1.970923133194446564e-02
-2.973080426454544067e-02 -4.060032591223716736e-02 -3.825331106781959534e-03
4.076234251260757446e-02 -3.346700593829154968e-02 2.294557727873325348e-02
1.914776116609573364e-02 -3.633565828204154968e-02 9.016780182719230652e-03
2.530784532427787781e-02 -3.362035006284713745e-02 1.443353854119777679e-02
1.933308318257331848e-03 -3.719680756330490112e-02 -5.630978383123874664e-03
4.538238048553466797e-02 -3.287130594253540039e-02 -8.784177713096141815e-03
-9.776884689927101135e-03 -3.884157165884971619e-02 -2.007911540567874908e-02
3.907688334584236145e-02 -2.968556806445121765e-02 -4.222672060132026672e-02
-4.789191298186779022e-03 -3.756131604313850403e-02 8.351141586899757385e-03
-2.013412304222583771e-02 -4.294725134968757629e-02 -3.316862881183624268e-02
6.253730505704879761e-03 -3.597096726298332214e-02 -1.429605949670076370e-02
3.395795449614524841e-02 -1.099694818258285522e-01 -4.472492262721061707e-02
1.961488276720046997e-02 -4.896020516753196716e-02 -4.104931652545928955e-02
-2.698865160346031189e-02 -4.169095307588577271e-02 -1.133017241954803467e-03
3.424639254808425903e-02 -6.514688581228256226e-02 -4.515706375241279602e-02
-1.218670234084129333e-02 -3.533478826284408569e-02 2.110801078379154205e-02
1.521261408925056458e-02 -3.501412644982337952e-02 -7.340624928474426270e-03
2.095756679773330688e-02 -7.936755567789077759e-02 -4.306311532855033875e-02
-2.331398241221904755e-02 -4.015711322426795959e-02 -1.179877109825611115e-02
2.581492811441421509e-02 -1.117868125438690186e-01 -4.050175100564956665e-02
3.200384601950645447e-02 -3.378404676914215088e-02 1.445373706519603729e-02
5.018278211355209351e-02 -3.215672448277473450e-02 1.217934116721153259e-02
2.420624718070030212e-03 -4.398041218519210815e-02 -3.995196521282196045e-02
1.551898196339607239e-03 -3.958061710000038147e-02 5.894361063838005066e-03
5.850879475474357605e-03 -3.771164268255233765e-02 -1.102332025766372681e-02
-2.675579860806465149e-03 -1.049141362309455872e-01 -3.770454227924346924e-02
-1.427780091762542725e-02 -3.832160681486129761e-02 1.304121129214763641e-02
-2.823456376791000366e-02 -4.095590487122535706e-02 1.707009971141815186e-03
2.076584473252296448e-02 -3.717827796936035156e-02 1.268343441188335419e-02
-2.593174763023853302e-02 -4.271708056330680847e-02 -3.472765535116195679e-02
1.774706318974494934e-02 -1.122907921671867371e-01 -4.236020892858505249e-02
3.314986079931259155e-02 -3.164985775947570801e-02 -3.400158137083053589e-02
-1.107325963675975800e-02 -3.784404695034027100e-02 -3.984872251749038696e-02
-2.444333583116531372e-02 -3.858824819326400757e-02 1.858500204980373383e-02
1.469375565648078918e-02 -3.659966588020324707e-02 -2.025930956006050110e-02
2.549975365400314331e-02 -3.480289131402969360e-02 1.483563147485256195e-02
2.604839950799942017e-02 -1.200673729181289673e-01 -4.157443344593048096e-02
-2.634830959141254425e-02 -4.059009626507759094e-02 -1.284838281571865082e-02
4.569903761148452759e-02 -3.418113291263580322e-02 -2.496764063835144043e-02
6.185637786984443665e-03 -1.068407222628593445e-01 -3.615449368953704834e-02
2.766218408942222595e-02 -3.308705613017082214e-02 2.006347663700580597e-02
-2.884548157453536987e-03 -6.377574801445007324e-02 -3.969394788146018982e-02
3.749196976423263550e-02 -3.386685252189636230e-02 1.276302896440029144e-02
3.199760243296623230e-02 -9.642825275659561157e-02 -4.411279410123825073e-02
-1.377294212579727173e-02 -7.864432036876678467e-02 -3.765305131673812866e-02
1.057755015790462494e-02 -3.785224631428718567e-02 -3.964358195662498474e-02
-4.018599167466163635e-03 -3.810831904411315918e-02 6.171083077788352966e-03
4.556524753570556641e-02 -3.763751685619354248e-02 -4.847546666860580444e-02
1.397358626127243042e-02 -3.604870662093162537e-02 -2.941040322184562683e-02
5.681606382131576538e-02 -3.227482736110687256e-02 -1.358856447041034698e-03
1.756260171532630920e-02 -3.327630832791328430e-02 2.025410719215869904e-02
5.309583991765975952e-02 -2.572823502123355865e-02 -4.735043644905090332e-02
2.270119637250900269e-02 -7.999297231435775757e-02 -4.070198535919189453e-02
2.480211853981018066e-02 -1.114464402198791504e-01 -4.216030985116958618e-02
-2.440365776419639587e-02 -3.975166752934455872e-02 2.047749422490596771e-02
-1.498868875205516815e-02 -4.049869626760482788e-02 -2.648587152361869812e-02
-8.015800267457962036e-03 -1.070237755775451660e-01 -3.671906143426895142e-02
-2.102984115481376648e-02 -3.988488763570785522e-02 -2.978917583823204041e-02
-4.663240164518356323e-03 -3.781883791089057922e-02 -1.766804605722427368e-02
-2.857572585344314575e-02 -4.084930941462516785e-02 -1.360068842768669128e-02
7.372168824076652527e-03 -3.413595631718635559e-02 1.772629283368587494e-02
-1.589160412549972534e-02 -8.686785399913787842e-02 -3.649169579148292542e-02
1.115384511649608612e-02 -3.461986035108566284e-02 -3.816978633403778076e-02
6.321050226688385010e-03 -3.408347442746162415e-02 1.716629974544048309e-02
-1.667401753365993500e-02 -3.939053788781166077e-02 -1.891230419278144836e-02
4.010962322354316711e-02 -3.381957113742828369e-02 2.776751853525638580e-02
3.962192311882972717e-02 -2.906311117112636566e-02 -4.747577756643295288e-02
7.611038163304328918e-03 -3.480483219027519226e-02 1.234932988882064819e-02
3.452857956290245056e-02 -3.361131250858306885e-02 -2.034290693700313568e-03
4.284954071044921875e-02 -3.367249667644500732e-02 7.280094549059867859e-03
-2.638512104749679565e-02 -4.082527011632919312e-02 1.969219930469989777e-02
2.778644114732742310e-02 -3.377484157681465149e-02 -2.474463358521461487e-02
-1.441113464534282684e-02 -3.805898502469062805e-02 -1.332421787083148956e-03
3.801927343010902405e-02 -3.500807657837867737e-02 1.075699925422668457e-02
-1.110543776303529739e-02 -3.918096795678138733e-02 1.640385575592517853e-02
3.001982346177101135e-03 -3.788898512721061707e-02 8.232820779085159302e-03
5.339696258306503296e-02 -3.247775509953498840e-02 -1.989634335041046143e-02
-8.228530175983905792e-03 -3.458185121417045593e-02 1.568982563912868500e-02
-1.798040047287940979e-02 -3.794579207897186279e-02 1.559829898178577423e-02
3.287508338689804077e-02 -3.034537099301815033e-02 -4.313277453184127808e-02
-2.429694496095180511e-02 -4.186438024044036865e-02 1.037421636283397675e-02
-2.595790103077888489e-02 -3.838169202208518982e-02 1.954878307878971100e-02
-2.782601118087768555e-02 -4.153062403202056885e-02 -1.612588390707969666e-02
-5.468015559017658234e-03 -5.904395505785942078e-02 -3.923173248767852783e-02
2.453252673149108887e-04 -3.609301149845123291e-02 1.865955255925655365e-02
3.237387165427207947e-02 -1.101696789264678955e-01 -4.108583182096481323e-02
8.162831887602806091e-03 -4.108033329248428345e-02 -3.921109437942504883e-02
-2.238369733095169067e-02 -4.023854061961174011e-02 1.956765912473201752e-02
-5.640774965286254883e-03 -3.720675408840179443e-02 1.073347218334674835e-02
-2.780053764581680298e-03 -9.764278680086135864e-02 -3.751379251480102539e-02
1.116991601884365082e-02 -3.381992131471633911e-02 1.664576120674610138e-02
1.198931224644184113e-02 -3.608397394418716431e-02 1.777791790664196014e-02
-1.191429700702428818e-02 -4.646414518356323242e-02 -3.750754520297050476e-02
2.520718798041343689e-02 -3.578637912869453430e-02 1.308904215693473816e-02
1.523957401514053345e-02 -3.377282992005348206e-02 1.394633948802947998e-02
1.531573012471199036e-02 -1.158582270145416260e-01 -3.784853219985961914e-02
3.431314229965209961e-02 -3.310886397957801819e-02 1.770857907831668854e-02
-1.284881867468357086e-02 -3.653793781995773315e-02 7.860459387302398682e-03
1.444534957408905029e-02 -3.645251318812370300e-02 -4.427976161241531372e-02
2.494834363460540771e-02 -3.302871808409690857e-02 -4.964507371187210083e-02
-1.135076768696308136e-02 -3.715544193983078003e-02 -3.874909877777099609e-02
3.730417042970657349e-02 -5.666454136371612549e-02 -4.589750617742538452e-02
-7.657203823328018188e-03 -1.049599349498748779e-01 -3.767733275890350342e-02
-2.647902816534042358e-02 -3.793851286172866821e-02 -3.963193856179714203e-03
6.888436153531074524e-03 -3.798509016633033752e-02 6.401924416422843933e-03
4.208222031593322754e-02 -3.345038369297981262e-02 7.384646683931350708e-03
-2.804906666278839111e-02 -4.158886894583702087e-02 -3.469717130064964294e-02
2.207662910223007202e-04 -7.964485883712768555e-02 -3.949986025691032410e-02
4.224831983447074890e-02 -3.246789798140525818e-02 1.176522113382816315e-02
-3.365973755717277527e-02 -5.149986594915390015e-02 -3.138109296560287476e-02
2.461724355816841125e-02 -3.366765007376670837e-02 1.756340451538562775e-02
3.028482571244239807e-02 -3.466025739908218384e-02 9.500583633780479431e-03
-1.640032231807708740e-02 -3.636521473526954651e-02 -8.047978393733501434e-03
1.719249412417411804e-03 -3.847025707364082336e-02 -1.440608408302068710e-02
5.543701350688934326e-03 -3.421947732567787170e-02 -1.774417236447334290e-03
-2.122125029563903809e-02 -8.784986287355422974e-02 -3.524842858314514160e-02
-4.722625017166137695e-04 -3.876375779509544373e-02 -3.402450680732727051e-02
8.196622133255004883e-03 -1.168465688824653625e-01 -4.026414081454277039e-02
-1.815039478242397308e-02 -3.956292569637298584e-02 1.355774514377117157e-02
4.065499082207679749e-02 -3.170461580157279968e-02 -2.781233564019203186e-02
-5.605556070804595947e-04 -3.627328202128410339e-02 -7.924278266727924347e-03
7.269378751516342163e-03 -3.597620502114295959e-02 8.813060820102691650e-03
2.732332423329353333e-02 -3.247140720486640930e-02 -1.924119889736175537e-02
2.341529726982116699e-02 -3.358181193470954895e-02 -6.318585015833377838e-03
1.336227729916572571e-02 -3.824006393551826477e-02 -4.056753218173980713e-02
-2.629334107041358948e-02 -4.337089508771896362e-02 6.628066301345825195e-03
-2.792848274111747742e-02 -3.971422091126441956e-02 2.516664005815982819e-02
-8.467026054859161377e-05 -1.125553324818611145e-01 -3.703739866614341736e-02
-2.866877242922782898e-02 -8.529712259769439697e-02 -3.565352037549018860e-02
-2.206111140549182892e-02 -3.559116274118423462e-02 1.921027339994907379e-02
4.824382811784744263e-02 -3.279298543930053711e-02 -9.122230112552642822e-04
2.986313402652740479e-02 -3.432198613882064819e-02 1.813236624002456665e-03
-1.062205340713262558e-02 -5.687720701098442078e-02 -3.972274437546730042e-02
-1.812961325049400330e-02 -9.058608114719390869e-02 -3.541608899831771851e-02
2.267076075077056885e-02 -3.318880870938301086e-02 1.865792088210582733e-02
4.423635452985763550e-02 -3.331869095563888550e-02 2.047141455113887787e-02
3.678757324814796448e-02 -3.330213576555252075e-02 -3.239105641841888428e-02
3.342487663030624390e-02 -3.441888839006423950e-02 8.773205801844596863e-03
1.984591782093048096e-02 -3.492957353591918945e-02 -2.286379411816596985e-02
-5.440358072519302368e-04 -3.808993473649024963e-02 -3.814452514052391052e-02
-2.674290165305137634e-02 -4.132277145981788635e-02 8.899502456188201904e-03
-1.896738819777965546e-02 -4.014973342418670654e-02 2.159297280013561249e-02
-1.057403907179832458e-02 -4.434578493237495422e-02 -3.761502355337142944e-02
-2.492514252662658691e-02 -3.979114070534706116e-02 -2.079973742365837097e-02
3.264358267188072205e-02 -1.131664067506790161e-01 -4.289197176694869995e-02
-1.699089631438255310e-02 -5.068434774875640869e-02 -3.785049170255661011e-02
3.355223312973976135e-02 -3.383623063564300537e-02 -1.411173492670059204e-02
2.268683537840843201e-02 -3.352301195263862610e-02 -4.812189191579818726e-02
3.004716336727142334e-02 -3.274735063314437866e-02 1.843331195414066315e-02
3.155678510665893555e-03 -1.149570941925048828e-01 -3.891396522521972656e-02
8.897682651877403259e-03 -5.930697545409202576e-02 -4.401689395308494568e-02
4.636282473802566528e-02 -3.401361033320426941e-02 2.055214904248714447e-02
-2.372043766081333160e-02 -3.956668451428413391e-02 -8.781923912465572357e-03
2.570331096649169922e-02 -3.272394463419914246e-02 2.064792998135089874e-02
-2.679901942610740662e-02 -4.119388014078140259e-02 -2.960823476314544678e-02
2.953322976827621460e-02 -6.777510792016983032e-02 -4.459917545318603516e-02
-3.436297923326492310e-02 -5.913806706666946411e-02 -3.301861137151718140e-02
2.879814803600311279e-02 -3.406847640872001648e-02 -3.250455856323242188e-02
3.531219437718391418e-03 -3.827667981386184692e-02 1.233777031302452087e-02
2.338635921478271484e-02 -8.913392573595046997e-02 -4.383655637502670288e-02
2.086508646607398987e-02 -8.330377936363220215e-02 -4.277672618627548218e-02
3.420832008123397827e-02 -3.161435201764106750e-02 1.988587342202663422e-02
1.684232056140899658e-02 -5.689465254545211792e-02 -4.304514452815055847e-02
3.522726893424987793e-02 -5.906255543231964111e-02 -4.601375758647918701e-02
-2.332263812422752380e-02 -3.958211094141006470e-02 -3.554265573620796204e-02
-8.309298194944858551e-03 -1.041101962327957153e-01 -3.742989152669906616e-02
5.312607437372207642e-02 -2.483374997973442078e-02 -4.802054911851882935e-02
4.415208473801612854e-03 -4.016259312629699707e-02 1.925940997898578644e-02
1.736079528927803040e-02 -3.641702234745025635e-02 -4.011500626802444458e-02
4.102026671171188354e-02 -2.703707292675971985e-02 -4.873347282409667969e-02
1.053282432258129120e-02 -3.329027071595191956e-02 4.355527460575103760e-03
-8.992806077003479004e-03 -3.877913951873779297e-02 2.251153625547885895e-02
-1.709064282476902008e-02 -3.813318163156509399e-02 -1.252654753625392914e-02
4.316764697432518005e-02 -3.268470242619514465e-02 -2.918852493166923523e-02
4.504470527172088623e-02 -3.278585150837898254e-02 1.370102167129516602e-03
3.519937768578529358e-02 -3.225674852728843689e-02 -4.488866776227951050e-02
-2.018494904041290283e-02 -4.104655236005783081e-02 1.346816308796405792e-02
2.572046592831611633e-02 -7.757581770420074463e-02 -4.167126119136810303e-02
-1.374248228967189789e-02 -3.859125822782516479e-02 -6.825421005487442017e-03
5.534078180789947510e-02 -2.886603958904743195e-02 -4.704242944717407227e-02
-1.612598076462745667e-02 -8.962065726518630981e-02 -3.783705830574035645e-02
-3.393618389964103699e-03 -1.137864440679550171e-01 -3.772725909948348999e-02
2.127182483673095703e-02 -3.141649439930915833e-02 -3.972446918487548828e-02
1.884297281503677368e-02 -3.523208200931549072e-02 -2.915743365883827209e-02
2.093832939863204956e-03 -7.577548921108245850e-02 -4.131878167390823364e-02
2.213040739297866821e-02 -3.219646587967872620e-02 -2.994472719728946686e-02
-1.964039541780948639e-02 -4.006807506084442139e-02 9.432848542928695679e-03
2.339666336774826050e-02 -3.189864382147789001e-02 2.084165252745151520e-02
-3.862178884446620941e-03 -3.955928981304168701e-02 8.028650656342506409e-03
-3.251366317272186279e-02 -4.009762406349182129e-02 -2.144524455070495605e-02
2.486375719308853149e-02 -3.330252692103385925e-02 1.758492551743984222e-02
1.366785541176795959e-02 -3.172365948557853699e-02 -4.401810467243194580e-02
-2.776538953185081482e-03 -1.119912862777709961e-01 -3.780823573470115662e-02
-2.375058829784393311e-02 -9.133820235729217529e-02 -3.355052322149276733e-02
-3.567505627870559692e-04 -5.668007582426071167e-02 -4.037742316722869873e-02
2.144755050539970398e-02 -1.213518381118774414e-01 -4.268771409988403320e-02
2.581128105521202087e-02 -5.335116758942604065e-02 -4.380465298891067505e-02
1.356288418173789978e-02 -2.994100749492645264e-02 -4.411441460251808167e-02
-2.584332041442394257e-02 -4.116999730467796326e-02 1.500091515481472015e-02
3.082805871963500977e-02 -8.180347830057144165e-02 -4.287263378500938416e-02
-2.867757156491279602e-02 -3.932856395840644836e-02 3.949111327528953552e-03
-8.848003111779689789e-03 -7.694222033023834229e-02 -3.722871467471122742e-02
-1.059566345065832138e-02 -1.048405766487121582e-01 -3.585606440901756287e-02
2.681046351790428162e-02 -3.140419349074363708e-02 -4.172401875257492065e-02
1.241938397288322449e-02 -1.193394884467124939e-01 -3.967132419347763062e-02
1.709744706749916077e-02 -8.124141395092010498e-02 -4.421138763427734375e-02
5.156555026769638062e-02 -3.295774012804031372e-02 1.130754686892032623e-02
3.183310851454734802e-02 -6.179719045758247375e-02 -4.473593831062316895e-02
-3.284303098917007446e-02 -4.105737805366516113e-02 1.632537692785263062e-03
-2.412442490458488464e-02 -4.076348245143890381e-02 -5.282494239509105682e-03
1.534835994243621826e-02 -1.052050217986106873e-01 -4.099539667367935181e-02
5.940728634595870972e-02 -3.079774603247642517e-02 -3.394117951393127441e-02
-1.373315043747425079e-02 -3.848827257752418518e-02 8.180458098649978638e-03
1.434846594929695129e-02 -4.717173054814338684e-02 -4.034382849931716919e-02
-5.906546488404273987e-03 -6.092062592506408691e-02 -3.663882613182067871e-02
3.312530741095542908e-02 -3.394521027803421021e-02 1.716995425522327423e-02
-2.614247798919677734e-02 -3.795868530869483948e-02 2.251245267689228058e-02
2.719547972083091736e-02 -3.118608146905899048e-02 -3.769259154796600342e-02
-1.935984008014202118e-02 -9.548626840114593506e-02 -3.694145381450653076e-02
-1.006870623677968979e-02 -7.743578404188156128e-02 -3.717224299907684326e-02
-2.214228920638561249e-02 -3.809316456317901611e-02 8.736621588468551636e-03
-1.926295459270477295e-02 -3.676791861653327942e-02 -8.248799480497837067e-03
7.604153826832771301e-03 -6.553205847740173340e-02 -3.913720697164535522e-02
-1.745058409869670868e-02 -5.284716188907623291e-02 -3.728587925434112549e-02
-2.938479371368885040e-02 -4.314159974455833435e-02 1.879852451384067535e-02
-3.071445040404796600e-02 -3.985762223601341248e-02 -3.422996029257774353e-03
2.372086420655250549e-02 -9.562591463327407837e-02 -4.264306649565696716e-02
-2.500062994658946991e-02 -4.283937439322471619e-02 1.594538800418376923e-02
5.718451738357543945e-02 -2.978846803307533264e-02 -4.421938210725784302e-02
4.043290764093399048e-02 -3.372130915522575378e-02 9.742580354213714600e-03
2.085424959659576416e-03 -3.755994141101837158e-02 7.370278239250183105e-03
-2.463676035404205322e-02 -3.688244521617889404e-02 1.932800747454166412e-02
6.386911496520042419e-03 -5.152533203363418579e-02 -4.077010229229927063e-02
-1.491116359829902649e-03 -3.882361948490142822e-02 -1.604441739618778229e-02
-1.742900162935256958e-02 -3.788937255740165710e-02 1.625869236886501312e-02
1.261757314205169678e-02 -3.854751586914062500e-02 2.007931284606456757e-02
-8.574094623327255249e-03 -3.585756570100784302e-02 3.597715869545936584e-03
1.212814636528491974e-02 -3.355829790234565735e-02 2.296544425189495087e-02
1.279278472065925598e-02 -3.169761598110198975e-02 1.980465464293956757e-02
5.114401131868362427e-02 -3.277903050184249878e-02 -4.595407098531723022e-02
3.385141491889953613e-02 -3.307547047734260559e-02 2.126279659569263458e-02
-2.740464173257350922e-02 -3.750427067279815674e-02 1.347770541906356812e-02
5.945324152708053589e-02 -3.182598203420639038e-02 -3.852227702736854553e-02
3.253563493490219116e-02 -8.912559598684310913e-02 -4.480382055044174194e-02
9.708914905786514282e-03 -5.819337442517280579e-02 -4.095665365457534790e-02
-1.611752063035964966e-02 -3.710032626986503601e-02 -2.655818685889244080e-02
-2.326816692948341370e-02 -3.789682313799858093e-02 -1.377407833933830261e-02
-2.686055563390254974e-02 -4.040524363517761230e-02 2.089564315974712372e-02
-1.324816048145294189e-02 -9.700697660446166992e-02 -3.623616695404052734e-02
-1.860255375504493713e-02 -3.957666456699371338e-02 4.828775301575660706e-03
-1.249528490006923676e-02 -3.618274629116058350e-02 -1.082152128219604492e-03
-1.004602853208780289e-02 -3.717197105288505554e-02 -1.681394875049591064e-02
1.722721382975578308e-02 -3.367983922362327576e-02 2.249225787818431854e-02
-8.600633591413497925e-04 -3.678231313824653625e-02 1.902841217815876007e-02
4.523023962974548340e-04 -3.471218049526214600e-02 1.458447240293025970e-02
2.556665986776351929e-02 -4.810821637511253357e-02 -4.383518174290657043e-02
-9.046047925949096680e-04 -5.532812699675559998e-02 -4.115558043122291565e-02
2.508328855037689209e-02 -3.325502946972846985e-02 -4.669937863945960999e-02
4.205606505274772644e-02 -3.303829208016395569e-02 -5.043208599090576172e-02
-1.030287425965070724e-02 -8.746311813592910767e-02 -3.734716773033142090e-02
