-0.063424 0.358650 -0.018117
-0.063600 0.359471 -0.036404
-0.062324 0.363278 -0.014223
-0.064723 0.318031 -0.015624
-0.061846 0.366920 -0.030850
-0.063997 0.357283 -0.031402
-0.055216 0.233930 -0.033916
-0.058164 0.220868 -0.034511
-0.101178 0.039949 0.012359
-0.101358 0.038514 0.015841
-0.065342 0.188371 -0.038783
-0.069956 0.306027 -0.022560
-0.078736 0.288346 -0.026914
-0.110521 0.006818 -0.064842
-0.102735 0.038190 -0.053315
-0.071504 0.280925 -0.026846
-0.065866 0.267268 -0.027602
-0.102655 0.034416 -0.026338
-0.101753 0.039847 -0.022286
-0.103139 0.034686 -0.049210
-0.105678 0.037673 -0.044826
-0.101489 0.040993 -0.017773
-0.101333 0.041617 -0.014667
-0.106608 0.030814 -0.041954
-0.105944 0.034631 -0.037073
-0.105549 0.033623 -0.010340
-0.101667 0.038649 -0.007630
-0.102855 0.034234 -0.034743
-0.102560 0.035621 -0.030383
-0.100153 0.045939 0.020606
-0.102864 0.028183 0.022398
-0.102486 0.032804 -0.003293
-0.105695 0.031509 0.001094
-0.098984 0.043276 0.028163
-0.103012 0.026792 0.029375
-0.101566 0.038123 0.004596
-0.100652 0.043618 0.008629
-0.058324 0.377744 -0.021578
-0.060560 0.367435 -0.021232
-0.059506 0.371889 -0.017435
-0.061157 0.364256 -0.016596
-0.063505 0.355378 -0.037681
-0.063427 0.353899 -0.016580
-0.060818 0.329776 -0.012716
-0.063603 0.354685 -0.034645
-0.062261 0.360408 -0.030401
-0.055769 0.225333 -0.035800
-0.056213 0.223152 -0.033966
-0.100411 0.030561 0.011404
-0.098847 0.040696 0.016148
-0.061454 0.199370 -0.036359
-0.108318 0.006460 -0.067899
-0.063566 0.313102 -0.014343
-0.076566 0.292297 -0.025977
-0.108193 0.006714 -0.064732
-0.100457 0.038687 -0.053098
-0.070391 0.280370 -0.026931
-0.063952 0.270111 -0.026948
-0.100220 0.035945 -0.025987
-0.100273 0.035169 -0.022936
-0.100036 0.040632 -0.047922
-0.103452 0.037731 -0.044700
-0.099185 0.041788 -0.017558
-0.100193 0.034783 -0.015592
-0.103966 0.033601 -0.041322
-0.104743 0.027588 -0.038235
-0.102800 0.037281 -0.009723
-0.099793 0.036587 -0.007827
-0.104344 0.029793 -0.034458
-0.103321 0.036218 -0.029182
-0.099763 0.034384 0.019530
-0.103537 0.029225 0.024021
-0.098588 0.043925 -0.001748
-0.103511 0.031192 0.001141
-0.099480 0.035785 0.027079
-0.100740 0.027204 0.029480
-0.102636 0.036731 0.005798
-0.097647 0.049005 0.009323
-0.057646 0.376536 -0.021895
-0.059312 0.368598 -0.020862
-0.060316 0.363791 -0.019617
-0.060580 0.362371 -0.017058
-0.060599 0.363812 -0.034901
-0.061071 0.359884 -0.015018
-0.061653 0.321488 -0.014705
-0.060518 0.363926 -0.031702
-0.060507 0.363781 -0.029327
-0.053079 0.231058 -0.034473
-0.054475 0.224585 -0.033608
-0.097350 0.036471 0.012131
-0.096659 0.040822 0.016237
-0.059246 0.202652 -0.035606
-0.067879 0.162277 -0.036864
-0.064841 0.310180 -0.018283
-0.067338 0.307035 -0.019772
-0.105688 0.007958 -0.064345
-0.101237 0.039057 -0.052101
-0.062066 0.273126 -0.028594
-0.063363 0.267009 -0.027583
-0.101176 0.035124 -0.024990
-0.096224 0.047391 -0.020904
-0.098538 0.035986 -0.048726
-0.097864 0.040074 -0.045007
-0.097939 0.035570 -0.018417
-0.097287 0.039654 -0.014776
-0.100637 0.041141 -0.039798
-0.101023 0.037890 -0.036263
-0.101731 0.029279 -0.010773
-0.097114 0.039951 -0.007274
-0.101957 0.030854 -0.034166
-0.097547 0.039815 -0.029469
-0.096978 0.038417 0.020004
-0.098235 0.029597 0.022677
-0.097584 0.036235 -0.002668
-0.100753 0.034890 0.001693
-0.095389 0.048590 0.028283
-0.097554 0.033876 0.030103
-0.100484 0.036391 0.005840
-0.096320 0.043729 0.008797
-0.056471 0.377529 -0.021562
-0.059056 0.365244 -0.021771
-0.063360 0.348203 -0.056719
-0.062204 0.353081 -0.051781
-0.061306 0.356815 -0.046938
-0.061703 0.341779 -0.046378
-0.058587 0.367182 -0.018648
-0.061077 0.355474 -0.018840
-0.061642 0.354681 -0.039897
-0.059844 0.362657 -0.035225
-0.062603 0.348388 -0.017919
-0.060014 0.335679 -0.013564
-0.059538 0.363820 -0.031690
-0.060801 0.357845 -0.031095
-0.050367 0.237108 -0.033060
-0.052592 0.226677 -0.033103
-0.094137 0.043568 0.012987
-0.098024 0.037295 0.017325
-0.058180 0.200618 -0.035991
-0.066178 0.162322 -0.036786
-0.068797 0.304277 -0.025968
-0.073954 0.293133 -0.025713
-0.071400 0.133168 -0.040547
-0.096321 0.036924 -0.053227
-0.060671 0.273764 -0.028414
-0.061812 0.268269 -0.027272
-0.095277 0.039878 -0.025151
-0.097948 0.041818 -0.020620
-0.098414 0.042470 -0.046491
-0.096085 0.037221 -0.045444
-0.097955 0.041204 -0.016361
-0.094866 0.041295 -0.014444
-0.095159 0.042918 -0.040276
-0.094863 0.044266 -0.035958
-0.098146 0.038963 -0.009300
-0.098878 0.033495 -0.006893
-0.098860 0.037067 -0.032966
-0.098963 0.035712 -0.029063
-0.094692 0.039176 0.020156
-0.098524 0.033225 0.024537
-0.095082 0.038478 -0.002292
-0.095402 0.035899 0.000648
-0.094771 0.038217 0.027437
-0.094557 0.039533 0.030648
-0.095296 0.036257 0.004618
-0.095684 0.033225 0.007663
-0.054641 0.381623 -0.020325
-0.057950 0.365768 -0.021584
-0.060727 0.355294 -0.053989
-0.061199 0.352920 -0.051786
-0.060104 0.357619 -0.046599
-0.059190 0.337211 -0.044794
-0.056161 0.373934 -0.016763
-0.059599 0.357589 -0.018247
-0.060063 0.357165 -0.039026
-0.058406 0.364677 -0.034529
-0.060048 0.355261 -0.016126
-0.057058 0.331955 -0.012075
-0.057621 0.368107 -0.030300
-0.058424 0.364138 -0.029132
-0.048630 0.238882 -0.032624
-0.050843 0.228290 -0.032712
-0.092535 0.039751 0.012646
-0.092637 0.038731 0.016167
-0.054957 0.208919 -0.034170
-0.061477 0.176252 -0.034946
-0.059160 0.317421 -0.013213
-0.072146 0.295795 -0.025075
-0.065866 0.153761 -0.036150
-0.092980 0.044983 -0.051493
-0.066506 0.281085 -0.026659
-0.059556 0.272920 -0.026231
-0.095567 0.043655 -0.023394
-0.092161 0.045899 -0.020959
-0.096640 0.039557 -0.046956
-0.092655 0.045877 -0.043695
-0.095467 0.043334 -0.015942
-0.091080 0.052447 -0.012723
-0.097413 0.032679 -0.041164
-0.096217 0.040707 -0.035545
-0.092647 0.041160 -0.010068
-0.092533 0.041616 -0.006878
-0.093241 0.040005 -0.033322
-0.097419 0.030806 -0.029795
-0.093109 0.035075 0.019822
-0.096161 0.034388 0.024718
-0.095509 0.041201 -0.000619
-0.096774 0.031812 0.001472
-0.092537 0.038728 0.027551
-0.096597 0.030818 0.031499
-0.092736 0.038975 0.005023
-0.092167 0.042604 0.008823
-0.056070 0.370281 -0.023606
-0.055251 0.373920 -0.019247
-0.060281 0.352877 -0.058232
-0.059409 0.356612 -0.053438
-0.060831 0.349834 -0.052864
-0.059323 0.356498 -0.046948
-0.060750 0.349606 -0.045294
-0.055579 0.372122 -0.017226
-0.057352 0.363431 -0.016672
-0.058521 0.359603 -0.038174
-0.058344 0.360271 -0.035910
-0.060170 0.349968 -0.017442
-0.056843 0.328025 -0.013002
-0.057263 0.365131 -0.031193
-0.058170 0.360609 -0.030166
-0.046143 0.244644 -0.031317
-0.050495 0.223344 -0.033745
-0.090066 0.041925 0.012958
-0.089438 0.046091 0.017000
-0.051427 0.218747 -0.032036
-0.058435 0.179316 -0.035394
-0.058642 0.314675 -0.013827
-0.066817 0.302455 -0.023818
-0.061837 0.167719 -0.033203
-0.094057 0.043205 -0.050920
-0.073619 0.283717 -0.025560
-0.066143 0.276941 -0.025218
-0.094342 0.036668 -0.024442
-0.093503 0.042401 -0.020340
-0.091409 0.039911 -0.047633
-0.090983 0.042476 -0.044235
-0.089979 0.045590 -0.016628
-0.089985 0.045167 -0.013704
-0.094458 0.038175 -0.040034
-0.095120 0.032533 -0.036916
-0.093592 0.040261 -0.008941
-0.093741 0.038803 -0.005984
-0.094362 0.037719 -0.032650
-0.093712 0.041915 -0.027812
-0.090419 0.038797 0.020262
-0.090606 0.037201 0.023605
-0.090699 0.038735 -0.002092
-0.094444 0.032710 0.001669
-0.088880 0.049321 0.028546
-0.090996 0.034037 0.030323
-0.093437 0.039737 0.006488
-0.087500 0.050264 0.010399
-0.053753 0.376862 -0.021644
-0.054382 0.373464 -0.019340
-0.058701 0.355398 -0.057199
-0.058495 0.356092 -0.053581
-0.059779 0.349856 -0.052804
-0.058747 0.354401 -0.047644
-0.059257 0.351677 -0.044534
-0.054415 0.373078 -0.016929
-0.055161 0.369226 -0.015107
-0.058866 0.353181 -0.040249
-0.056569 0.363911 -0.034686
-0.058182 0.354454 -0.016267
-0.055644 0.328512 -0.012849
-0.057144 0.360897 -0.032474
-0.057743 0.357827 -0.030974
-0.046184 0.245748 -0.028631
-0.048416 0.226515 -0.033012
-0.088381 0.038511 0.012660
-0.091259 0.038687 0.017698
-0.051022 0.213794 -0.033043
-0.056682 0.180150 -0.035168
-0.059437 0.313849 -0.017279
-0.069449 0.297190 -0.024687
-0.060577 0.165249 -0.033656
-0.066602 0.129363 -0.037524
-0.070977 0.290100 -0.024111
-0.064644 0.278097 -0.024932
-0.092504 0.033812 -0.024812
-0.088593 0.040591 -0.021609
-0.092112 0.040500 -0.046554
-0.092191 0.039358 -0.043842
-0.092117 0.035791 -0.016913
-0.086231 0.056717 -0.011926
-0.092223 0.038440 -0.039881
-0.091646 0.042132 -0.035085
-0.087932 0.043960 -0.009509
-0.088062 0.042689 -0.006567
-0.088676 0.041601 -0.032853
-0.090988 0.045831 -0.027059
-0.092819 0.036721 0.017488
-0.092081 0.031931 0.024633
-0.088259 0.040686 -0.001762
-0.092016 0.034325 0.001955
-0.092368 0.039595 0.025122
-0.095788 0.035947 0.029414
-0.092534 0.029877 0.005385
-0.091411 0.038215 0.009795
-0.054243 0.369682 -0.023706
-0.053539 0.372898 -0.019464
-0.057037 0.358373 -0.055991
-0.055517 0.365499 -0.049990
-0.056580 0.360089 -0.049001
-0.056685 0.359299 -0.045853
-0.057282 0.342498 -0.045932
-0.053985 0.370449 -0.017611
-0.057933 0.350983 -0.019884
-0.057841 0.353154 -0.040212
-0.055562 0.363951 -0.034629
-0.058628 0.347485 -0.018010
-0.053851 0.331802 -0.012011
-0.056039 0.361366 -0.032284
-0.054787 0.367313 -0.028039
-0.052020 0.250896 -0.027751
-0.047989 0.221823 -0.033991
-0.090511 0.038436 0.010087
-0.094011 0.033728 0.014615
-0.050467 0.209264 -0.033961
-0.055371 0.182778 -0.036208
-0.056085 0.316023 -0.013441
-0.067815 0.299255 -0.024188
-0.057319 0.174723 -0.031654
-0.063064 0.139361 -0.035394
-0.064220 0.274383 -0.028039
-0.063431 0.277968 -0.024926
-0.086358 0.041555 -0.024511
-0.084995 0.051274 -0.019850
-0.089221 0.045831 -0.045413
-0.090130 0.038362 -0.043929
-0.089495 0.039111 -0.016317
-0.086147 0.041761 -0.014032
-0.090761 0.032615 -0.040858
-0.090628 0.032981 -0.036629
-0.089910 0.034889 -0.009529
-0.088590 0.044688 -0.005010
-0.089740 0.039498 -0.032141
-0.088849 0.045662 -0.026994
-0.090610 0.037090 0.017595
-0.090603 0.036880 0.021071
-0.093266 0.041233 -0.003004
-0.094480 0.031308 -0.000974
-0.088688 0.050907 0.026168
-0.090655 0.036010 0.027981
-0.093908 0.035445 0.003495
-0.093188 0.040763 0.007527
-0.051654 0.377844 -0.021284
-0.054031 0.365614 -0.021482
-0.056056 0.358187 -0.056010
-0.057568 0.350647 -0.055524
-0.057852 0.349075 -0.052987
-0.055934 0.358014 -0.046262
-0.056061 0.343261 -0.045624
-0.052458 0.373263 -0.016811
-0.055394 0.358313 -0.017916
-0.056072 0.356742 -0.038985
-0.056644 0.353785 -0.037877
-0.055088 0.359605 -0.014885
-0.057632 0.346976 -0.015102
-0.054617 0.363427 -0.031598
-0.054715 0.362759 -0.029389
-0.043244 0.247347 -0.028220
-0.044115 0.233927 -0.031309
-0.090852 0.041635 0.011869
-0.087450 0.044999 0.014457
-0.047762 0.215611 -0.032572
-0.052527 0.190036 -0.034653
-0.059626 0.310870 -0.021135
-0.062809 0.304777 -0.023191
-0.056370 0.170540 -0.032454
-0.059563 0.149839 -0.033221
-0.069643 0.285034 -0.025165
-0.056162 0.264758 -0.027861
-0.086390 0.047320 -0.022439
-0.083716 0.044901 -0.020763
-0.068541 0.091595 -0.040755
-0.083362 0.051062 -0.042310
-0.091982 0.035982 -0.019332
-0.090655 0.046082 -0.014804
-0.087999 0.037096 -0.039927
-0.088566 0.031744 -0.036750
-0.092298 0.032437 -0.012421
-0.090732 0.044570 -0.007576
-0.087240 0.041927 -0.031620
-0.087408 0.039995 -0.027850
-0.090821 0.041278 0.019498
-0.091565 0.035134 0.022431
-0.090569 0.045240 -0.002407
-0.091727 0.035815 -0.000331
-0.088324 0.037512 0.025074
-0.091528 0.035049 0.029474
-0.091791 0.034855 0.003502
-0.091023 0.040687 0.007594
-0.051081 0.375917 -0.021810
-0.052627 0.367732 -0.020850
-0.055317 0.356822 -0.056488
-0.055679 0.354796 -0.053914
-0.056899 0.348602 -0.053111
-0.055630 0.354508 -0.047459
-0.056119 0.351787 -0.044356
-0.052085 0.370250 -0.017597
-0.055294 0.353830 -0.019065
-0.054580 0.359044 -0.038180
-0.052800 0.367873 -0.033281
-0.056092 0.349654 -0.017391
-0.053155 0.324811 -0.013651
-0.054350 0.359776 -0.032700
-0.055676 0.353015 -0.032321
-0.056642 0.255228 -0.026772
-0.043322 0.230961 -0.031913
-0.090520 0.038865 0.007455
-0.093262 0.039861 0.012571
-0.045332 0.220663 -0.031463
-0.052164 0.183109 -0.036041
-0.061025 0.307980 -0.024887
-0.065454 0.299270 -0.024117
-0.053990 0.175061 -0.031482
-0.058611 0.145032 -0.034117
-0.067540 0.289200 -0.024208
-0.061379 0.275850 -0.025317
-0.088662 0.046100 -0.025172
-0.088670 0.045625 -0.022107
-0.065929 0.096255 -0.039756
-0.085139 0.043230 -0.042799
-0.085686 0.045614 -0.018913
-0.088421 0.046646 -0.014640
-0.086470 0.031444 -0.040868
-0.086553 0.029964 -0.036967
-0.089004 0.041438 -0.011065
-0.088477 0.045285 -0.007401
-0.085437 0.038899 -0.032053
-0.086201 0.043166 -0.030878
-0.089727 0.044479 0.015627
-0.093211 0.039646 0.020093
-0.088695 0.042998 -0.002616
-0.089932 0.032409 -0.000675
-0.090490 0.037985 0.022358
-0.093845 0.034125 0.026640
-0.092958 0.043311 0.001764
-0.089188 0.049649 0.004526
-0.050101 0.376064 -0.021732
-0.051865 0.366593 -0.021137
-0.053525 0.360644 -0.054957
-0.054026 0.357880 -0.052704
-0.053912 0.358207 -0.049544
-0.055821 0.348464 -0.049559
-0.051132 0.331895 -0.043810
-0.053210 0.359425 -0.020520
-0.054313 0.353627 -0.019086
-0.053498 0.359410 -0.038016
-0.052417 0.364763 -0.034242
-0.054835 0.350776 -0.017072
-0.051200 0.328949 -0.012609
-0.051784 0.367798 -0.030155
-0.053249 0.360041 -0.030138
-0.048408 0.248907 -0.028068
-0.042147 0.229913 -0.032104
-0.087944 0.042292 0.007895
-0.088327 0.038834 0.011147
-0.044655 0.216801 -0.032238
-0.050291 0.184898 -0.035622
-0.060540 0.304731 -0.025613
-0.064766 0.296926 -0.024612
-0.052710 0.172740 -0.031900
-0.055674 0.152833 -0.032506
-0.066904 0.286436 -0.024787
-0.052863 0.268668 -0.026945
-0.086724 0.044329 -0.025369
-0.087630 0.036312 -0.023477
-0.062764 0.105225 -0.037912
-0.074316 0.069888 -0.043600
-0.087588 0.036072 -0.019143
-0.082602 0.052758 -0.014809
-0.082515 0.046136 -0.038068
-0.087907 0.036270 -0.038367
-0.088328 0.028528 -0.012798
-0.088165 0.042423 -0.011735
-0.088514 0.030369 -0.036062
-0.087238 0.040722 -0.030170
-0.091034 0.039952 0.016685
-0.091771 0.033513 0.019594
-0.090617 0.045501 -0.005040
-0.092811 0.026475 -0.004157
-0.091030 0.039390 0.024033
-0.091124 0.038431 0.027066
-0.090643 0.044456 0.001975
-0.086929 0.050751 0.004721
-0.049102 0.376318 -0.021622
-0.048888 0.377175 -0.018126
-0.053335 0.341859 -0.056918
-0.055322 0.346029 -0.053954
-0.054775 0.348458 -0.049514
-0.054921 0.347422 -0.045760
-0.049872 0.371706 -0.017135
-0.052850 0.355907 -0.018453
-0.052540 0.359144 -0.038061
-0.050571 0.369269 -0.032746
-0.053181 0.353974 -0.016228
-0.052957 0.340355 -0.015103
-0.051882 0.362126 -0.031887
-0.050117 0.371204 -0.026697
-0.053745 0.256872 -0.026365
-0.041270 0.227241 -0.032645
-0.089605 0.034165 0.008454
-0.085181 0.046990 0.012045
-0.042103 0.222697 -0.030951
-0.048424 0.186755 -0.035191
-0.058810 0.307561 -0.024919
-0.065437 0.287826 -0.026633
-0.051139 0.172325 -0.031932
-0.052280 0.164299 -0.030182
-0.066188 0.283958 -0.025302
-0.066601 0.281736 -0.023490
-0.083954 0.049335 -0.024477
-0.085511 0.048530 -0.025381
-0.059389 0.116171 -0.035726
-0.069017 0.076788 -0.043359
-0.089426 0.039224 -0.021401
-0.089384 0.039204 -0.018375
-0.086254 0.032054 -0.043175
-0.085825 0.035204 -0.038459
-0.090189 0.031401 -0.015131
-0.089099 0.040714 -0.010679
-0.085808 0.034822 -0.035194
-0.084744 0.043390 -0.029636
-0.088781 0.040656 0.016825
-0.089853 0.031090 0.019441
-0.088939 0.041411 -0.005484
-0.091046 0.022299 -0.004595
-0.086007 0.039425 0.022617
-0.089978 0.029564 0.026400
-0.088633 0.043209 0.001906
-0.085679 0.043600 0.003988
-0.047577 0.379477 -0.020668
-0.049269 0.369995 -0.020107
-0.052214 0.342135 -0.056766
-0.053543 0.349664 -0.052575
-0.053559 0.349325 -0.049161
-0.052195 0.341407 -0.046073
-0.049864 0.366608 -0.018499
-0.052466 0.352614 -0.019289
-0.053021 0.351468 -0.040555
-0.050928 0.362161 -0.035003
-0.052480 0.352311 -0.016621
-0.049053 0.328855 -0.012571
-0.051401 0.359417 -0.032695
-0.049852 0.367445 -0.027811
-0.052487 0.256652 -0.026380
-0.046313 0.245359 -0.026544
-0.086853 0.039169 0.009071
-0.086253 0.044147 0.013228
-0.039787 0.227495 -0.029902
-0.045878 0.192897 -0.033880
-0.057323 0.309281 -0.024486
-0.061034 0.303711 -0.023017
-0.049201 0.174279 -0.031488
-0.052261 0.152775 -0.032399
-0.064497 0.286280 -0.024756
-0.065208 0.282541 -0.023285
-0.087976 0.033598 -0.029734
-0.087023 0.041810 -0.025258
-0.056781 0.121731 -0.034566
-0.064788 0.093338 -0.040089
-0.086951 0.041840 -0.020921
-0.083261 0.048529 -0.018078
-0.079380 0.048103 -0.041063
-0.083416 0.037120 -0.038022
-0.087100 0.039570 -0.013901
-0.083846 0.042585 -0.011553
-0.084201 0.029340 -0.036048
-0.087264 0.040806 -0.032789
-0.083688 0.041321 0.015528
-0.086842 0.038331 0.020180
-0.086815 0.041104 -0.005446
-0.088089 0.029022 -0.003680
-0.086502 0.041053 0.024314
-0.087191 0.034716 0.026895
-0.086206 0.045561 0.002256
-0.083595 0.043102 0.004004
-0.047905 0.372439 -0.022686
-0.048716 0.367723 -0.020719
-0.049178 0.364962 -0.018910
-0.049344 0.363837 -0.016303
-0.049451 0.364755 -0.034126
-0.050870 0.355411 -0.015800
-0.048368 0.326826 -0.013034
-0.049555 0.363920 -0.031250
-0.050400 0.359213 -0.030280
-0.045128 0.244707 -0.028855
-0.036201 0.240026 -0.029808
-0.080358 0.052251 0.009174
-0.084172 0.043473 0.013231
-0.038255 0.228261 -0.029704
-0.044966 0.188950 -0.034645
-0.053957 0.310700 -0.021014
-0.059733 0.304437 -0.022823
-0.046687 0.180111 -0.030260
-0.048472 0.167702 -0.029415
-0.062064 0.292469 -0.023363
-0.061973 0.292745 -0.021071
-0.086297 0.028726 -0.030431
-0.081512 0.046265 -0.025562
-0.053526 0.131981 -0.032480
-0.060758 0.109799 -0.036899
-0.085763 0.032635 -0.022217
-0.083941 0.048865 -0.016803
-0.081061 0.053114 -0.042861
-0.085567 0.037597 -0.040657
-0.084655 0.041965 -0.013485
-0.081584 0.043675 -0.011327
-0.084128 0.049929 -0.035218
-0.084819 0.043206 -0.032302
-0.084336 0.041660 0.017063
-0.081607 0.040478 0.018993
-0.081332 0.045296 -0.006084
-0.086082 0.027102 -0.003838
-0.080926 0.046144 0.023329
-0.084426 0.040025 0.027400
-0.081544 0.042686 0.000681
-0.081600 0.041857 0.003939
-0.047225 0.370829 -0.023122
-0.047738 0.367753 -0.020679
-0.047421 0.369298 -0.017699
-0.050666 0.351333 -0.019565
-0.048722 0.363276 -0.034565
-0.050537 0.351759 -0.016702
-0.046963 0.328473 -0.012603
-0.047061 0.372270 -0.028604
-0.049478 0.358774 -0.030380
-0.050672 0.251708 -0.027344
-0.036156 0.232412 -0.031404
-0.079262 0.043131 0.008270
-0.078529 0.049447 0.012507
-0.035631 0.235143 -0.028210
-0.043229 0.190229 -0.034340
-0.055462 0.307065 -0.024940
-0.059528 0.299538 -0.023897
-0.044834 0.178930 -0.031636
-0.047657 0.161468 -0.030566
-0.062743 0.282757 -0.025471
-0.062607 0.283295 -0.023064
-0.082452 0.044317 -0.027833
-0.082958 0.039228 -0.025484
-0.051445 0.134108 -0.032005
-0.059085 0.108379 -0.037097
-0.082158 0.045976 -0.020133
-0.082273 0.044517 -0.017351
-0.076951 0.059476 -0.040564
-0.082006 0.050231 -0.038329
-0.082276 0.043950 -0.013129
-0.078516 0.051999 -0.010121
-0.082999 0.040640 -0.036721
-0.082671 0.042989 -0.032245
-0.086567 0.042787 0.014338
-0.087960 0.029123 0.016570
-0.082508 0.040787 -0.005329
-0.083354 0.032131 -0.003134
-0.083798 0.041770 0.020119
-0.087232 0.035650 0.024202
-0.082357 0.041417 0.001919
-0.081763 0.046411 0.005863
-0.043697 0.385315 -0.018865
-0.045546 0.374698 -0.018692
-0.045248 0.376185 -0.015796
-0.048076 0.359850 -0.017290
-0.046662 0.369335 -0.032576
-0.047932 0.360434 -0.014462
-0.046195 0.326797 -0.012981
-0.046539 0.369781 -0.029349
-0.047911 0.361831 -0.029408
-0.049012 0.253981 -0.026842
-0.034843 0.232076 -0.031440
-0.080432 0.054272 0.006631
-0.081036 0.048438 0.009573
-0.035193 0.229863 -0.029289
-0.040671 0.196971 -0.032914
-0.045905 0.322327 -0.011710
-0.058061 0.301093 -0.023516
-0.042903 0.181786 -0.033834
-0.045045 0.168633 -0.029133
-0.059432 0.293757 -0.023022
-0.061946 0.280301 -0.023676
-0.081594 0.031495 -0.029799
-0.076823 0.050096 -0.024790
-0.054932 0.126846 -0.035979
-0.062595 0.100181 -0.041385
-0.080155 0.044479 -0.020272
-0.079450 0.050746 -0.016361
-0.072970 0.061016 -0.041296
-0.081370 0.035697 -0.040798
-0.080381 0.041313 -0.013411
-0.079836 0.046103 -0.009631
-0.081619 0.032689 -0.038000
-0.080772 0.040401 -0.032582
-0.084488 0.042030 0.014337
-0.084633 0.040262 0.017665
-0.080242 0.041642 -0.005141
-0.085968 0.029214 -0.006317
-0.081933 0.039240 0.019969
-0.084672 0.039424 0.024579
-0.085140 0.037210 -0.001403
-0.081232 0.047372 0.001806
-0.044079 0.378024 -0.020965
-0.044043 0.377950 -0.017755
-0.045723 0.367910 -0.018021
-0.048183 0.353748 -0.018870
-0.047812 0.357283 -0.036427
-0.048730 0.350465 -0.016973
-0.044728 0.328878 -0.012447
-0.048575 0.352824 -0.034611
-0.046354 0.365076 -0.028387
-0.047434 0.255818 -0.026433
-0.032820 0.235977 -0.030569
-0.082435 0.041688 0.006734
-0.079287 0.044891 0.009283
-0.034765 0.224416 -0.030400
-0.039148 0.197001 -0.032867
-0.056786 0.301858 -0.025804
-0.057728 0.296674 -0.024482
-0.041069 0.177836 -0.032929
-0.043620 0.166909 -0.029418
-0.059593 0.286518 -0.024582
-0.061447 0.276208 -0.024529
-0.077663 0.048846 -0.026932
-0.079128 0.033759 -0.026161
-0.052746 0.129774 -0.035346
-0.054760 0.113358 -0.036022
-0.074378 0.052543 -0.020102
-0.073951 0.056268 -0.016621
-0.066944 0.066295 -0.042727
-0.078763 0.039840 -0.039970
-0.083226 0.036319 -0.016921
-0.079569 0.044723 -0.013845
-0.078477 0.042202 -0.036268
-0.078595 0.040295 -0.032507
-0.082292 0.042379 0.014441
-0.079467 0.042484 0.016475
-0.083053 0.036992 -0.008554
-0.083955 0.027215 -0.006487
-0.082528 0.039355 0.021536
-0.083102 0.033306 0.024145
-0.082385 0.042918 -0.000653
-0.082735 0.039143 0.002292
-0.044118 0.372152 -0.022642
-0.044268 0.370968 -0.019678
-0.044525 0.369247 -0.017623
-0.045953 0.360604 -0.017034
-0.044288 0.371836 -0.031694
-0.046676 0.356286 -0.015464
-0.045116 0.335401 -0.013195
-0.046984 0.356021 -0.033575
-0.044595 0.369617 -0.026975
-0.040002 0.243479 -0.028990
-0.033389 0.224530 -0.033001
-0.080158 0.042843 0.006930
-0.080146 0.042658 0.010532
-0.032175 0.231391 -0.028894
-0.037866 0.195383 -0.033157
-0.051864 0.307939 -0.024646
-0.055463 0.302533 -0.023133
-0.038857 0.188297 -0.032439
-0.042224 0.164799 -0.029773
-0.057026 0.293914 -0.022930
-0.060004 0.277354 -0.024253
-0.076650 0.037177 -0.028703
-0.079877 0.050000 -0.026446
-0.049593 0.140461 -0.033234
-0.057349 0.112806 -0.038874
-0.080578 0.042285 -0.023327
-0.076784 0.052162 -0.020034
-0.068557 0.063598 -0.040642
-0.076119 0.044652 -0.039033
-0.081004 0.036733 -0.016779
-0.080775 0.038760 -0.013352
-0.076631 0.038717 -0.036769
-0.076220 0.042345 -0.032081
-0.080503 0.038584 0.014144
-0.080205 0.041329 0.017899
-0.080131 0.044637 -0.007504
-0.080651 0.039103 -0.004940
-0.077357 0.041965 0.020334
-0.080951 0.033020 0.024187
-0.079976 0.045422 -0.000287
-0.077115 0.045989 0.001797
-0.043224 0.371744 -0.022729
-0.041897 0.379584 -0.017239
-0.044249 0.365110 -0.018723
-0.047264 0.347372 -0.020491
-0.046069 0.355735 -0.036856
-0.045767 0.355741 -0.015577
-0.043670 0.322718 -0.013886
-0.045414 0.359242 -0.032535
-0.044613 0.363744 -0.028729
-0.044474 0.258197 -0.025881
-0.030585 0.232970 -0.031138
-0.074980 0.045702 0.005927
-0.075124 0.043933 0.009326
-0.030475 0.233412 -0.028435
-0.035990 0.197976 -0.032588
-0.045061 0.318462 -0.015826
-0.054052 0.303925 -0.022791
-0.037772 0.184943 -0.033069
-0.039608 0.172533 -0.028235
-0.057495 0.284710 -0.024924
-0.058972 0.276102 -0.024494
-0.078239 0.045264 -0.030226
-0.078528 0.041654 -0.027655
-0.048677 0.133757 -0.034460
-0.054762 0.119243 -0.037596
-0.078139 0.045180 -0.022812
-0.077868 0.047488 -0.019484
-0.062983 0.065373 -0.042724
-0.073627 0.047989 -0.038350
-0.079162 0.033051 -0.017212
-0.078206 0.042966 -0.012711
-0.073748 0.046288 -0.035384
-0.078810 0.039833 -0.035298
-0.078079 0.041349 0.014482
-0.077918 0.042727 0.018097
-0.079205 0.031316 -0.009121
-0.078356 0.040371 -0.004706
-0.074773 0.046607 0.020791
-0.078525 0.035683 0.024475
-0.077828 0.045398 -0.000216
-0.078170 0.041530 0.002712
-0.039467 0.388545 -0.017804
-0.043475 0.364097 -0.021552
-0.044380 0.358434 -0.020513
-0.044051 0.360156 -0.017098
-0.044287 0.360246 -0.035365
-0.045581 0.350927 -0.016775
-0.041890 0.326571 -0.012922
-0.044625 0.358008 -0.032889
-0.044153 0.360579 -0.029659
-0.043556 0.255766 -0.026358
-0.043444 0.244910 -0.028819
-0.080449 0.044139 0.004788
-0.080681 0.041409 0.008125
-0.029816 0.229129 -0.029306
-0.034680 0.196506 -0.032848
-0.049461 0.308627 -0.024429
-0.049457 0.308457 -0.022026
-0.035980 0.186742 -0.032670
-0.037875 0.173356 -0.028032
-0.055766 0.287623 -0.024253
-0.050491 0.266458 -0.027042
-0.076618 0.039247 -0.031093
-0.072495 0.053927 -0.026752
-0.046774 0.134902 -0.034188
-0.053742 0.112122 -0.038878
-0.075919 0.045880 -0.022624
-0.072295 0.054996 -0.019460
-0.060550 0.069205 -0.041933
-0.075915 0.048993 -0.040977
-0.076548 0.037859 -0.016458
-0.075679 0.046906 -0.012102
-0.076039 0.047108 -0.038050
-0.076442 0.041957 -0.034861
-0.081297 0.033944 0.011418
-0.080747 0.039860 0.015482
-0.075300 0.050392 -0.006621
-0.076641 0.035155 -0.005269
-0.077905 0.040962 0.017958
-0.081330 0.032688 0.021875
-0.075230 0.050246 0.000424
-0.072721 0.047623 0.002123
-0.041037 0.373490 -0.022163
-0.041459 0.370501 -0.019725
-0.042161 0.365926 -0.018444
-0.043428 0.357925 -0.017659
-0.042918 0.362462 -0.034616
-0.044050 0.353999 -0.015968
-0.043726 0.338931 -0.015194
-0.042345 0.365727 -0.030445
-0.042342 0.365557 -0.028113
-0.042550 0.253717 -0.026757
-0.043804 0.244364 -0.026495
-0.074653 0.054403 0.004572
-0.078155 0.045428 0.008598
-0.027688 0.233872 -0.028280
-0.032952 0.198128 -0.032478
-0.048000 0.310512 -0.023964
-0.052412 0.300121 -0.023595
-0.035134 0.181368 -0.033704
-0.036347 0.172623 -0.028129
-0.055455 0.282455 -0.025363
-0.056121 0.278353 -0.023952
-0.074795 0.035284 -0.031640
-0.073350 0.051088 -0.026022
-0.045036 0.134756 -0.034164
-0.050709 0.122994 -0.036767
-0.073733 0.046230 -0.022487
-0.073558 0.047713 -0.019287
-0.055290 0.079071 -0.041266
-0.073517 0.051711 -0.040408
-0.073765 0.044850 -0.015416
-0.078797 0.040895 -0.015248
-0.074956 0.034867 -0.040051
-0.074592 0.038356 -0.035364
-0.078856 0.037114 0.011791
-0.078034 0.046132 0.016115
-0.078553 0.042992 -0.009902
-0.079613 0.030160 -0.008230
-0.075724 0.041433 0.018064
-0.078191 0.043869 0.022853
-0.078739 0.040067 -0.003106
-0.074805 0.053208 0.000399
-0.039661 0.376245 -0.021331
-0.039253 0.378620 -0.017427
-0.041181 0.365944 -0.018412
-0.042707 0.356217 -0.018082
-0.042470 0.359131 -0.035657
-0.041571 0.363052 -0.013641
-0.043019 0.317652 -0.018315
-0.041132 0.367229 -0.029946
-0.041263 0.366181 -0.027891
-0.048292 0.264095 -0.024441
-0.033449 0.239945 -0.029562
-0.075974 0.046107 0.005137
-0.075919 0.046469 0.008773
-0.028151 0.221962 -0.030741
-0.031412 0.198389 -0.032387
-0.050348 0.305603 -0.024794
-0.051357 0.299495 -0.023708
-0.032992 0.185917 -0.032754
-0.034986 0.170199 -0.028550
-0.052914 0.290217 -0.023628
-0.054411 0.281212 -0.023313
-0.072049 0.041846 -0.030509
-0.071366 0.049409 -0.026197
-0.042554 0.141036 -0.032919
-0.049211 0.120204 -0.037238
-0.076952 0.038631 -0.025952
-0.075909 0.050378 -0.021241
-0.053032 0.082033 -0.040656
-0.071242 0.053300 -0.040037
-0.076637 0.041224 -0.018254
-0.076364 0.044072 -0.014747
-0.072061 0.043209 -0.038533
-0.071606 0.047906 -0.033700
-0.076122 0.043747 0.012496
-0.076723 0.036279 0.015292
-0.076737 0.038953 -0.010333
-0.077465 0.029445 -0.008238
-0.075840 0.046332 0.020044
-0.076671 0.036287 0.022304
-0.075913 0.047739 -0.002142
-0.075938 0.047068 0.001126
-0.039921 0.368268 -0.023628
-0.039708 0.369405 -0.019979
-0.039476 0.370731 -0.017085
-0.041110 0.359961 -0.017073
-0.041302 0.360191 -0.035282
-0.039962 0.334801 -0.016280
-0.039595 0.320879 -0.014221
-0.041524 0.358564 -0.032618
-0.040410 0.365446 -0.028088
-0.040362 0.250649 -0.027335
-0.041156 0.244327 -0.026447
-0.074237 0.041382 0.004711
-0.070746 0.050722 0.007863
-0.040627 0.248108 -0.023131
-0.029646 0.200470 -0.031928
-0.045742 0.310483 -0.023919
-0.049411 0.304154 -0.022632
-0.031739 0.183561 -0.033187
-0.033743 0.166722 -0.029169
-0.052381 0.286229 -0.024480
-0.055050 0.269184 -0.025876
-0.074720 0.040562 -0.033046
-0.074443 0.043489 -0.029451
-0.040027 0.148178 -0.031499
-0.046869 0.125178 -0.036241
-0.074744 0.039079 -0.025801
-0.074002 0.047790 -0.021535
-0.055972 0.078071 -0.044183
-0.066042 0.058156 -0.040062
-0.073971 0.047497 -0.017311
-0.074097 0.045478 -0.014481
-0.069374 0.049623 -0.037351
-0.074457 0.044639 -0.036576
-0.074652 0.035264 0.011756
-0.074130 0.041571 0.015843
-0.073942 0.046675 -0.009282
-0.074767 0.036006 -0.007355
-0.073635 0.047111 0.020176
-0.073905 0.043688 0.022972
-0.074086 0.043984 -0.002505
-0.074452 0.039146 0.000317
-0.038787 0.369351 -0.023283
-0.038515 0.370966 -0.019514
-0.039757 0.362536 -0.019287
-0.041031 0.354167 -0.018571
-0.038381 0.372859 -0.031173
-0.040516 0.357181 -0.015083
-0.037123 0.329311 -0.012158
-0.038736 0.370208 -0.028957
-0.039584 0.364434 -0.028363
-0.045960 0.262681 -0.024687
-0.024270 0.229615 -0.031693
-0.072012 0.042135 0.004863
-0.071504 0.048057 0.009071
-0.025515 0.220768 -0.030924
-0.028630 0.196682 -0.032660
-0.048752 0.301373 -0.025723
-0.050048 0.293319 -0.025042
-0.030002 0.185067 -0.032847
-0.031584 0.171451 -0.028223
-0.051225 0.285919 -0.024523
-0.051823 0.282090 -0.023076
-0.072623 0.039667 -0.033103
-0.072903 0.035539 -0.030591
-0.037963 0.151411 -0.030832
-0.045036 0.125598 -0.036107
-0.071736 0.049778 -0.024137
-0.071372 0.053787 -0.020593
-0.053915 0.079079 -0.043931
-0.062722 0.059613 -0.038724
-0.073482 0.025663 -0.020245
-0.069035 0.048869 -0.015167
-0.073175 0.033922 -0.042358
-0.072659 0.039983 -0.037253
-0.071983 0.041701 0.012441
-0.071784 0.043828 0.016116
-0.071939 0.044905 -0.009432
-0.072303 0.039769 -0.006821
-0.071877 0.042366 0.019846
-0.073022 0.026667 0.021663
-0.071308 0.051832 -0.001521
-0.071466 0.049492 0.001541
-0.036874 0.375994 -0.021322
-0.037575 0.370855 -0.019520
-0.037794 0.369112 -0.017474
-0.038015 0.367375 -0.015075
-0.040008 0.355677 -0.036675
-0.040510 0.350774 -0.016689
-0.036578 0.325959 -0.012943
-0.040043 0.355222 -0.033601
-0.039595 0.357926 -0.030315
-0.037555 0.252278 -0.026947
-0.037490 0.239557 -0.029800
-0.069971 0.040654 0.004779
-0.069393 0.047737 0.009109
-0.023174 0.227414 -0.029498
-0.028226 0.187290 -0.034531
-0.046985 0.305169 -0.024815
-0.047925 0.299117 -0.023715
-0.029017 0.177786 -0.031429
-0.029892 0.172047 -0.028067
-0.049934 0.286444 -0.024381
-0.051245 0.277990 -0.023925
-0.070188 0.043271 -0.032449
-0.070205 0.042477 -0.029442
-0.041958 0.138664 -0.036030
-0.042883 0.129153 -0.035390
-0.069776 0.047550 -0.024386
-0.069564 0.049802 -0.021089
-0.052258 0.075846 -0.044447
-0.066424 0.060060 -0.041968
-0.070022 0.042956 -0.017778
-0.069713 0.046751 -0.014156
-0.070213 0.044491 -0.040471
-0.070241 0.043383 -0.036610
-0.069526 0.045614 0.012876
-0.069918 0.040233 0.015858
-0.070127 0.040347 -0.009927
-0.070534 0.034348 -0.007403
-0.069893 0.040143 0.019722
-0.070730 0.028011 0.021839
-0.070617 0.032608 -0.003677
-0.069441 0.048109 0.001458
-0.035755 0.377280 -0.020925
-0.036626 0.370796 -0.019510
-0.036754 0.369696 -0.017291
-0.038846 0.355245 -0.018239
-0.038101 0.361666 -0.034717
-0.039850 0.348413 -0.017263
-0.035734 0.324431 -0.013288
-0.039366 0.353049 -0.034250
-0.037705 0.363885 -0.028474
-0.043896 0.259253 -0.025349
-0.028675 0.235491 -0.030387
-0.067761 0.041333 0.004920
-0.064551 0.049044 0.007899
-0.021778 0.227532 -0.029443
-0.025828 0.194748 -0.032978
-0.045977 0.304275 -0.024997
-0.046468 0.300989 -0.023272
-0.027502 0.179819 -0.033816
-0.032860 0.169170 -0.031193
-0.048183 0.289936 -0.023588
-0.050042 0.277775 -0.023946
-0.068738 0.033182 -0.033961
-0.067916 0.044413 -0.029058
-0.033988 0.157046 -0.029671
-0.041645 0.123681 -0.036361
-0.067241 0.052793 -0.023527
-0.064216 0.058029 -0.020969
-0.049233 0.087915 -0.042194
-0.063287 0.059886 -0.040928
-0.067745 0.044770 -0.017450
-0.067795 0.043512 -0.014508
-0.068618 0.036617 -0.041720
-0.068141 0.042591 -0.036653
-0.067761 0.040421 0.012457
-0.067493 0.043813 0.016247
-0.067522 0.046695 -0.009054
-0.068648 0.030039 -0.007854
-0.064668 0.046392 0.018807
-0.067834 0.038371 0.022739
-0.067267 0.049165 -0.001684
-0.064688 0.048238 0.000197
-0.035939 0.369083 -0.023281
-0.035861 0.369408 -0.019874
-0.036571 0.364215 -0.018757
-0.037758 0.355824 -0.018063
-0.036732 0.364274 -0.033847
-0.038944 0.347630 -0.017438
-0.036199 0.331464 -0.013927
-0.037093 0.361579 -0.031562
-0.036893 0.362779 -0.028786
-0.050382 0.266280 -0.023351
-0.035861 0.244293 -0.026347
-0.065068 0.049100 0.005806
-0.065090 0.048263 0.009301
-0.027723 0.232761 -0.028567
-0.023185 0.204955 -0.030884
-0.036026 0.319718 -0.015332
-0.045350 0.300741 -0.023304
-0.024998 0.188344 -0.032079
-0.026160 0.176843 -0.027068
-0.047264 0.288135 -0.023961
-0.047213 0.288290 -0.021679
-0.066010 0.041270 -0.032596
-0.065414 0.049445 -0.028202
-0.038459 0.138798 -0.035907
-0.039967 0.122439 -0.036540
-0.066289 0.035780 -0.025959
-0.065184 0.051408 -0.020695
-0.052518 0.081912 -0.045621
-0.059564 0.060384 -0.041903
-0.062144 0.057048 -0.016867
-0.065616 0.043989 -0.014367
-0.065476 0.050712 -0.039236
-0.066115 0.040498 -0.036908
-0.062117 0.052995 0.012264
-0.065880 0.035905 0.015605
-0.065381 0.046744 -0.008972
-0.065908 0.038428 -0.006757
-0.062173 0.051475 0.019299
-0.065824 0.036058 0.022619
-0.065303 0.046741 -0.001893
-0.064802 0.053400 0.002185
-0.034778 0.370586 -0.022821
-0.034791 0.370217 -0.019624
-0.035024 0.368287 -0.017625
-0.037666 0.349581 -0.019679
-0.036612 0.358238 -0.035762
-0.037936 0.347523 -0.017442
-0.033458 0.325121 -0.013075
-0.036095 0.361659 -0.031509
-0.034694 0.371510 -0.026108
-0.034425 0.245609 -0.028252
-0.026753 0.230038 -0.031732
-0.063522 0.040268 0.004949
-0.060185 0.051230 0.008252
-0.026942 0.228365 -0.029452
-0.021727 0.204766 -0.030889
-0.039869 0.312022 -0.023436
-0.044333 0.299789 -0.023492
-0.024226 0.181171 -0.033469
-0.030002 0.164651 -0.031958
-0.046067 0.288125 -0.023939
-0.047107 0.281026 -0.023205
-0.063662 0.044233 -0.032038
-0.063388 0.047805 -0.028368
-0.035657 0.150207 -0.033686
-0.037425 0.130761 -0.034946
-0.064123 0.035571 -0.025907
-0.063232 0.048885 -0.020978
-0.050414 0.083967 -0.045186
-0.060036 0.062127 -0.041365
-0.063600 0.042546 -0.017597
-0.063353 0.045775 -0.014051
-0.063766 0.044199 -0.040253
-0.063465 0.048025 -0.035583
-0.062963 0.047696 0.013276
-0.063102 0.045348 0.016511
-0.063057 0.049393 -0.008565
-0.064438 0.027120 -0.008054
-0.062741 0.050301 0.020768
-0.063472 0.039051 0.022922
-0.063488 0.041731 -0.002399
-0.062884 0.050396 0.001923
-0.032200 0.382780 -0.019255
-0.034336 0.366507 -0.020641
-0.035064 0.361053 -0.019572
-0.034823 0.362531 -0.016258
-0.034549 0.365860 -0.033277
-0.036177 0.352678 -0.016115
-0.032260 0.325926 -0.012859
-0.034442 0.366389 -0.030006
-0.036739 0.349950 -0.032628
-0.040921 0.251926 -0.026792
-0.033143 0.245034 -0.026146
-0.060932 0.047308 0.005755
-0.061114 0.043935 0.009000
-0.032291 0.237806 -0.027463
-0.021435 0.193429 -0.033137
-0.036006 0.317463 -0.019039
-0.043787 0.295649 -0.024397
-0.022654 0.181317 -0.033402
-0.027209 0.177190 -0.029546
-0.045531 0.283646 -0.024901
-0.045857 0.281240 -0.023137
-0.061916 0.037451 -0.033024
-0.061380 0.045740 -0.028602
-0.034836 0.140374 -0.035513
-0.035823 0.128881 -0.035243
-0.061656 0.040355 -0.025121
-0.061454 0.043064 -0.021733
-0.048625 0.082201 -0.045443
-0.055263 0.063329 -0.041248
-0.061757 0.037254 -0.018241
-0.060985 0.049395 -0.013496
-0.061362 0.048246 -0.039483
-0.061808 0.040103 -0.036796
-0.061022 0.044898 0.013075
-0.060763 0.048466 0.016857
-0.060948 0.049200 -0.008515
-0.061637 0.037348 -0.006740
-0.061411 0.037807 0.019787
-0.061560 0.034972 0.022661
-0.061546 0.038368 -0.002714
-0.061327 0.041474 0.001008
-0.033828 0.363354 -0.024881
-0.033285 0.367130 -0.020443
-0.033541 0.364946 -0.018488
-0.034754 0.355864 -0.017986
-0.033754 0.364625 -0.033653
-0.035555 0.349859 -0.016808
-0.041679 0.310325 -0.025912
-0.033556 0.365777 -0.030170
-0.034166 0.361169 -0.029196
-0.039271 0.255014 -0.026131
-0.032014 0.243274 -0.026483
-0.058492 0.052338 0.006348
-0.059217 0.039674 0.008648
-0.024056 0.229342 -0.029186
-0.019863 0.194009 -0.032986
-0.041815 0.301369 -0.025576
-0.043258 0.291235 -0.025366
-0.021111 0.181177 -0.033393
-0.026213 0.170660 -0.030748
-0.044553 0.281997 -0.025237
-0.044757 0.280404 -0.023292
-0.059294 0.045430 -0.031688
-0.059500 0.041005 -0.029248
-0.033134 0.140097 -0.035520
-0.034460 0.124007 -0.036098
-0.058770 0.052727 -0.023223
-0.058492 0.056724 -0.019702
-0.046088 0.090300 -0.043930
-0.053200 0.063793 -0.041097
-0.059721 0.035020 -0.018472
-0.059090 0.045467 -0.013942
-0.058941 0.053087 -0.038585
-0.060110 0.031783 -0.038075
-0.058675 0.048259 0.013461
-0.059278 0.037612 0.015958
-0.059458 0.038123 -0.009828
-0.059511 0.036652 -0.006750
-0.058877 0.044166 0.020383
-0.059331 0.035989 0.022806
-0.059143 0.042509 -0.002166
-0.059208 0.040897 0.001015
-0.031456 0.374258 -0.021681
-0.030529 0.381305 -0.016460
-0.031715 0.371723 -0.016628
-0.033979 0.354180 -0.018406
-0.032043 0.370187 -0.031832
-0.033883 0.354656 -0.015572
-0.032166 0.329758 -0.014252
-0.032513 0.366312 -0.029978
-0.032684 0.364889 -0.028042
-0.046113 0.259871 -0.024594
-0.030581 0.244367 -0.026237
-0.056528 0.049759 0.006148
-0.056840 0.043778 0.009122
-0.029884 0.235413 -0.027902
-0.017788 0.199890 -0.031771
-0.039351 0.310694 -0.023394
-0.040282 0.303901 -0.022504
-0.023883 0.180820 -0.036047
-0.024823 0.167744 -0.031256
-0.042321 0.289229 -0.023630
-0.044021 0.276727 -0.024055
-0.057676 0.035367 -0.033191
-0.057111 0.045449 -0.028492
-0.031230 0.142192 -0.035075
-0.037057 0.124791 -0.038756
-0.056627 0.053154 -0.023085
-0.056858 0.048454 -0.020810
-0.044615 0.084218 -0.044961
-0.048168 0.062553 -0.043804
-0.057327 0.038996 -0.017853
-0.057280 0.039342 -0.014679
-0.056639 0.056102 -0.037997
-0.057215 0.045129 -0.035814
-0.057299 0.034691 0.012252
-0.057254 0.035099 0.015799
-0.057067 0.042326 -0.009229
-0.057788 0.028241 -0.007694
-0.056433 0.049295 0.020874
-0.057227 0.034774 0.022775
-0.056986 0.042756 -0.002066
-0.056541 0.050165 0.002108
-0.031105 0.369354 -0.023083
-0.031698 0.364441 -0.021153
-0.031685 0.364333 -0.018614
-0.033275 0.351941 -0.018972
-0.032864 0.356394 -0.036247
-0.033168 0.352504 -0.016098
-0.030714 0.332560 -0.013551
-0.030993 0.370748 -0.028575
-0.032332 0.360083 -0.029477
-0.044622 0.261653 -0.024203
-0.028300 0.237684 -0.030002
-0.054376 0.050311 0.006271
-0.054957 0.038801 0.008696
-0.028142 0.238870 -0.027169
-0.016505 0.197647 -0.032190
-0.030131 0.322756 -0.014515
-0.040673 0.292774 -0.024975
-0.022187 0.182334 -0.035712
-0.022321 0.175740 -0.030929
-0.041650 0.285449 -0.024437
-0.042340 0.280247 -0.023282
-0.055435 0.036810 -0.032883
-0.054845 0.047652 -0.028080
-0.029223 0.145687 -0.034364
-0.034978 0.128699 -0.037987
-0.055487 0.034072 -0.025807
-0.054874 0.045675 -0.021130
-0.041976 0.094916 -0.042995
-0.049270 0.061724 -0.041321
-0.054915 0.044023 -0.017092
-0.054972 0.042075 -0.014241
-0.054934 0.048567 -0.039192
-0.055287 0.040508 -0.036485
-0.054855 0.040112 0.012829
-0.054552 0.045560 0.016792
-0.054572 0.049021 -0.008321
-0.055363 0.032994 -0.007046
-0.054996 0.036392 0.019865
-0.054812 0.039687 0.023230
-0.054918 0.041249 -0.002169
-0.054119 0.055652 0.002775
-0.029124 0.378034 -0.020541
-0.030070 0.369755 -0.019640
-0.029800 0.371878 -0.016545
-0.031649 0.356692 -0.017704
-0.031012 0.363115 -0.034062
-0.031885 0.354621 -0.015541
-0.027934 0.325984 -0.012759
-0.031188 0.361517 -0.031426
-0.030401 0.367509 -0.027196
-0.035904 0.250014 -0.027094
-0.027159 0.235793 -0.030375
-0.052941 0.036111 0.004861
-0.052052 0.053823 0.010241
-0.026730 0.239608 -0.026996
-0.015097 0.196659 -0.032356
-0.037531 0.307531 -0.024086
-0.039287 0.294299 -0.024610
-0.021198 0.175970 -0.036938
-0.026010 0.166400 -0.034238
-0.040068 0.288275 -0.023796
-0.041279 0.279013 -0.023524
-0.053284 0.036240 -0.032890
-0.052884 0.043879 -0.028575
-0.027979 0.139559 -0.035485
-0.033353 0.126832 -0.038285
-0.052473 0.051586 -0.023169
-0.052835 0.043353 -0.021383
-0.041056 0.079713 -0.045656
-0.049615 0.063973 -0.040690
-0.055985 0.031479 -0.018247
-0.052549 0.047938 -0.013398
-0.052656 0.051520 -0.038618
-0.052970 0.043827 -0.035869
-0.052453 0.045241 0.013372
-0.052809 0.037485 0.016144
-0.052729 0.043177 -0.008978
-0.055920 0.030655 -0.006683
-0.052290 0.047355 0.020833
-0.053041 0.031143 0.022615
-0.052756 0.041395 -0.002081
-0.052250 0.051090 0.002341
-0.029467 0.366995 -0.023726
-0.029137 0.369569 -0.019672
-0.029307 0.367978 -0.017582
-0.030221 0.360262 -0.016750
-0.030453 0.359706 -0.035136
-0.031096 0.352937 -0.015948
-0.029068 0.328898 -0.014398
-0.029894 0.364013 -0.030627
-0.030082 0.362299 -0.028758
-0.034499 0.251070 -0.026855
-0.027020 0.240152 -0.027036
-0.050596 0.040067 0.005341
-0.050071 0.050985 0.010024
-0.026124 0.232691 -0.028384
-0.018815 0.185826 -0.037119
-0.036672 0.305492 -0.024538
-0.038062 0.294671 -0.024506
-0.019302 0.179873 -0.036130
-0.023910 0.172980 -0.032970
-0.039554 0.283060 -0.024918
-0.040968 0.271220 -0.025182
-0.050534 0.049530 -0.030745
-0.051029 0.037263 -0.029504
-0.026054 0.142192 -0.034939
-0.031495 0.127999 -0.038024
-0.050690 0.044037 -0.024195
-0.050289 0.052377 -0.020039
-0.038901 0.083266 -0.044963
-0.045157 0.062452 -0.041068
-0.053857 0.029606 -0.018425
-0.050820 0.038825 -0.014521
-0.050658 0.048913 -0.038987
-0.050754 0.045605 -0.035507
-0.050455 0.042146 0.013147
-0.050192 0.047285 0.017065
-0.050484 0.045470 -0.008623
-0.051098 0.030876 -0.007157
-0.049927 0.052674 0.021323
-0.050599 0.037594 0.023189
-0.050943 0.033644 -0.002899
-0.050374 0.045892 0.001839
-0.027768 0.373546 -0.021803
-0.027920 0.371904 -0.019001
-0.027677 0.373910 -0.015955
-0.029252 0.360118 -0.016768
-0.029590 0.358662 -0.035444
-0.029290 0.359582 -0.014245
-0.030138 0.320421 -0.020565
-0.029255 0.361211 -0.031475
-0.028387 0.368304 -0.026914
-0.033206 0.250992 -0.026850
-0.024463 0.235740 -0.030335
-0.048253 0.044719 0.005884
-0.048357 0.041710 0.009180
-0.018146 0.219734 -0.031044
-0.012512 0.191607 -0.033305
-0.035533 0.305491 -0.024518
-0.036228 0.299776 -0.023343
-0.018022 0.176331 -0.036796
-0.022593 0.168627 -0.033749
-0.037562 0.289248 -0.023545
-0.040181 0.267239 -0.026019
-0.048666 0.043116 -0.031668
-0.048586 0.044275 -0.028373
-0.028956 0.139595 -0.038237
-0.034192 0.130861 -0.039848
-0.048784 0.038210 -0.024970
-0.048534 0.043620 -0.021203
-0.036946 0.083791 -0.044818
-0.045614 0.061482 -0.040991
-0.051545 0.032303 -0.017980
-0.048602 0.040175 -0.014274
-0.048478 0.050318 -0.038681
-0.048986 0.036057 -0.036975
-0.048012 0.049234 0.013858
-0.048855 0.027693 0.015402
-0.048755 0.035229 -0.009822
-0.051377 0.033956 -0.006137
-0.048283 0.041670 0.020484
-0.048872 0.026056 0.022340
-0.048631 0.036903 -0.002456
-0.047870 0.054577 0.002836
-0.026458 0.376967 -0.020789
-0.027811 0.364444 -0.021072
-0.028786 0.355908 -0.020824
-0.028636 0.356982 -0.017572
-0.027941 0.364253 -0.033627
-0.028593 0.357157 -0.014841
-0.024775 0.325432 -0.012833
-0.028197 0.361821 -0.031263
-0.027668 0.366153 -0.027544
-0.040154 0.255239 -0.025441
-0.022834 0.238776 -0.029683
-0.046033 0.046952 0.006171
-0.046132 0.043767 0.009440
-0.023719 0.229578 -0.028970
-0.010709 0.195369 -0.032521
-0.034239 0.306734 -0.024212
-0.035788 0.294071 -0.024601
-0.016087 0.181132 -0.035812
-0.020846 0.170412 -0.033380
-0.036062 0.291747 -0.022980
-0.039513 0.261911 -0.027148
-0.046910 0.032196 -0.033300
-0.046316 0.047877 -0.027767
-0.026988 0.143171 -0.037514
-0.032790 0.125387 -0.040809
-0.046225 0.049158 -0.023323
-0.046309 0.046007 -0.020805
-0.035127 0.081797 -0.045122
-0.041914 0.064333 -0.041589
-0.046530 0.038745 -0.017519
-0.046601 0.035847 -0.014770
-0.046290 0.052071 -0.038321
-0.046671 0.040366 -0.036211
-0.046114 0.043674 0.013406
-0.046419 0.034744 0.016090
-0.046292 0.043114 -0.008783
-0.046230 0.044325 -0.005413
-0.045838 0.049255 0.021153
-0.045993 0.045256 0.023888
-0.046664 0.031662 -0.002986
-0.045998 0.048730 0.002266
-0.025645 0.375814 -0.021103
-0.026563 0.366889 -0.020364
-0.026911 0.363618 -0.018713
-0.027269 0.360258 -0.016696
-0.028037 0.354839 -0.036628
-0.028635 0.348299 -0.017068
-0.027217 0.336834 -0.015358
-0.028043 0.354559 -0.033501
-0.027797 0.356578 -0.030429
-0.031052 0.245752 -0.027893
-0.030757 0.248979 -0.025034
-0.044181 0.039023 0.005421
-0.043759 0.050548 0.010145
-0.022665 0.226171 -0.029651
-0.019302 0.175847 -0.041838
-0.033485 0.303605 -0.024916
-0.033109 0.306499 -0.021803
-0.014114 0.186752 -0.034671
-0.019099 0.172388 -0.032975
-0.035940 0.282965 -0.024880
-0.036008 0.282228 -0.022762
-0.044292 0.045851 -0.031114
-0.044051 0.052101 -0.027069
-0.030832 0.129051 -0.042527
-0.031108 0.123810 -0.041053
-0.044102 0.049281 -0.023243
-0.044068 0.049389 -0.020271
-0.033287 0.079889 -0.045412
-0.039749 0.067298 -0.041024
-0.044319 0.040591 -0.017209
-0.044151 0.044658 -0.013565
-0.044275 0.049262 -0.038723
-0.044160 0.051245 -0.034399
-0.043973 0.043732 0.013466
-0.044061 0.040489 0.016643
-0.044530 0.031889 -0.010100
-0.044496 0.032145 -0.006793
-0.043895 0.044693 0.020834
-0.044163 0.036247 0.023253
-0.044416 0.033500 -0.002711
-0.043706 0.053721 0.002853
-0.024360 0.379148 -0.020122
-0.025203 0.370673 -0.019286
-0.026340 0.360035 -0.019668
-0.026889 0.354797 -0.018108
-0.026899 0.356059 -0.036214
-0.027482 0.349438 -0.016762
-0.024802 0.328760 -0.014357
-0.025893 0.364893 -0.030267
-0.026671 0.357727 -0.030059
-0.029644 0.246932 -0.027628
-0.028509 0.240119 -0.029231
-0.041771 0.047454 0.006325
-0.041782 0.046311 0.009790
-0.020730 0.232165 -0.028393
-0.012159 0.193173 -0.035518
-0.031140 0.313841 -0.022526
-0.033575 0.292945 -0.024817
-0.017615 0.177173 -0.039335
-0.017790 0.167256 -0.033894
-0.033975 0.289427 -0.023449
-0.035371 0.277105 -0.023835
-0.041986 0.051825 -0.030131
-0.041798 0.056551 -0.026341
-0.023257 0.148073 -0.036505
-0.029014 0.129477 -0.039972
-0.042127 0.044243 -0.023906
-0.041916 0.050634 -0.020038
-0.031364 0.079543 -0.045420
-0.037031 0.062870 -0.040759
-0.044916 0.033377 -0.017619
-0.042283 0.035441 -0.014697
-0.042258 0.045809 -0.039232
-0.042532 0.034598 -0.037005
-0.042067 0.035948 0.012810
-0.042102 0.034125 0.016146
-0.042110 0.040080 -0.009036
-0.044993 0.027260 -0.006724
-0.041558 0.050953 0.021377
-0.042205 0.028796 0.022729
-0.042016 0.041317 -0.001775
-0.041841 0.046358 0.002118
-0.023703 0.376592 -0.020842
-0.023406 0.379162 -0.016905
-0.025331 0.360251 -0.019592
-0.025886 0.354830 -0.018083
-0.026833 0.347655 -0.038887
-0.026753 0.346838 -0.017400
-0.023631 0.329643 -0.014126
-0.024582 0.368123 -0.029240
-0.025288 0.361366 -0.028939
-0.035670 0.261845 -0.024025
-0.036593 0.251153 -0.024033
-0.039484 0.053504 0.006981
-0.039934 0.036140 0.008861
-0.019188 0.234172 -0.027961
-0.005491 0.205769 -0.030355
-0.026994 0.317261 -0.021997
-0.032205 0.294622 -0.024423
-0.015806 0.180803 -0.038587
-0.015970 0.170758 -0.033213
-0.033581 0.282462 -0.024953
-0.034641 0.272192 -0.024874
-0.040348 0.033457 -0.032901
-0.040076 0.042868 -0.028330
-0.021414 0.150503 -0.036008
-0.027419 0.126490 -0.040477
-0.040190 0.036484 -0.024960
-0.039632 0.056655 -0.019144
-0.029462 0.078869 -0.045491
-0.035030 0.062279 -0.040804
-0.040157 0.035153 -0.017816
-0.040079 0.036956 -0.014441
-0.039980 0.051631 -0.038207
-0.040266 0.038599 -0.036298
-0.039905 0.036462 0.012902
-0.039728 0.042230 0.016888
-0.039936 0.041240 -0.008842
-0.040095 0.034028 -0.006453
-0.039606 0.046112 0.021034
-0.039641 0.043980 0.023929
-0.039956 0.038090 -0.002081
-0.039756 0.044905 0.002015
-0.022787 0.376392 -0.020883
-0.022813 0.375911 -0.017791
-0.024366 0.360100 -0.019617
-0.025302 0.351019 -0.019064
-0.024252 0.362233 -0.034191
-0.025901 0.345204 -0.017795
-0.020460 0.325543 -0.012737
-0.024856 0.356228 -0.032921
-0.023212 0.372074 -0.025671
-0.035058 0.254350 -0.025548
-0.027250 0.243451 -0.026098
-0.037725 0.039532 0.005624
-0.037673 0.040653 0.009343
-0.018058 0.231527 -0.028476
