-0.30394912 0.01697513 -0.01610940
-0.29691103 0.02190077 -0.01423248
-0.22865494 0.02028427 0.02563038
-0.22955380 0.01878475 0.02536254
-0.30864471 0.01295544 -0.01198494
-0.29409534 0.02323728 -0.00973531
-0.30442420 0.01707395 -0.02435684
-0.30410779 0.01725856 -0.02277623
-0.29661310 0.02163833 -0.00762169
-0.30053005 0.01739487 -0.00558324
-0.30491239 0.01709917 -0.02063436
-0.30540794 0.01677279 -0.01851973
-0.28284571 0.01745021 0.00754852
-0.27951068 0.01832862 0.00922045
-0.30132291 0.01620010 -0.00351792
-0.29799119 0.01749254 -0.00224347
-0.27955139 0.01710944 0.00936835
-0.28077459 0.01626193 0.00874244
-0.28936836 0.01969676 0.00102126
-0.29095152 0.01623521 0.00128959
-0.25713998 0.02135217 0.01627309
-0.26491424 0.01766762 0.01413823
-0.29031998 0.01555224 0.00232335
-0.28753904 0.01612665 0.00441795
-0.21716136 0.01978590 0.02836322
-0.20286295 0.02199372 0.02925310
-0.25086260 0.01941340 0.01942039
-0.23258491 0.02355893 0.02411984
-0.20249872 0.02082361 0.02993421
-0.19135505 0.02316869 0.02927833
-0.24270737 0.01942216 0.02113568
-0.24355567 0.01854974 0.02087578
-0.27798060 0.02513926 -0.04320813
-0.30072013 0.01600347 -0.03252281
-0.30973354 0.01327900 -0.02509865
-0.30547076 0.01607689 -0.02546452
-0.31325248 0.01180762 -0.01415125
-0.29994661 0.01951078 -0.01440167
-0.23065297 0.02055943 0.02364817
-0.21534476 0.02269528 0.02791277
-0.30699560 0.01396299 -0.01229462
-0.30132103 0.01776107 -0.00931071
-0.30569246 0.01672054 -0.02345838
-0.30252069 0.01825697 -0.02290956
-0.29162624 0.02411847 -0.00823824
-0.30693167 0.01265598 -0.00594601
-0.30281636 0.01840903 -0.02114783
-0.31100807 0.01297827 -0.01567993
-0.27647188 0.02228907 0.00901985
-0.28210849 0.01735794 0.00806466
-0.29631349 0.01972992 -0.00331844
-0.30094677 0.01633047 -0.00310980
-0.26855105 0.02219369 0.01334114
-0.28002933 0.01744020 0.00849822
-0.29192230 0.01872374 -0.00009277
-0.28790215 0.01945762 0.00176882
-0.26161420 0.02018077 0.01451803
-0.26186010 0.01958293 0.01472839
-0.28632149 0.01942034 0.00335688
-0.28403819 0.01894813 0.00536216
-0.20956594 0.02228653 0.02793374
-0.20289321 0.02265231 0.02848551
-0.25510627 0.01996547 0.01592545
-0.23461100 0.02370120 0.02255540
-0.19918226 0.02217180 0.02963969
-0.18864134 0.02434248 0.02852332
-0.24701931 0.01977910 0.02010861
-0.24102898 0.01993456 0.02057258
-0.29036701 0.02041452 -0.03810688
-0.29467848 0.01898490 -0.03550133
-0.30893767 0.01387753 -0.02518163
-0.29880103 0.01874259 -0.02849934
-0.30696175 0.01533900 -0.01596380
-0.30133551 0.01890100 -0.01412322
-0.22408633 0.02330251 0.02515196
-0.22323418 0.02192955 0.02510073
-0.30168286 0.01860202 -0.01179706
-0.29867491 0.01972183 -0.00984321
-0.30446172 0.01733179 -0.02344922
-0.30365628 0.01824801 -0.02227932
-0.29942557 0.01937692 -0.00811979
-0.29925153 0.01921726 -0.00602255
-0.30210754 0.01909582 -0.02105323
-0.30484977 0.01768602 -0.01842296
-0.28156319 0.01951941 0.00730428
-0.28380713 0.01680654 0.00677265
-0.29991230 0.01817548 -0.00385700
-0.28986940 0.02161116 -0.00168734
-0.26757461 0.02323129 0.01263662
-0.27391508 0.02022712 0.01005382
-0.29014793 0.02001833 -0.00023121
-0.28663981 0.02081693 0.00163412
-0.26091501 0.02084048 0.01409123
-0.26665980 0.01903335 0.01190555
-0.27911735 0.02473257 0.00622665
-0.27901959 0.02282859 0.00707755
-0.21600741 0.02182744 0.02702847
-0.19781493 0.02433256 0.02824521
-0.24852033 0.02194795 0.01845045
-0.24037509 0.02268117 0.02049318
-0.19784567 0.02312835 0.02903026
-0.18099861 0.02665338 0.02768461
-0.23706529 0.02227517 0.02080379
-0.24329527 0.01989510 0.01901255
-0.28263992 0.02435813 -0.04081947
-0.29502338 0.01883341 -0.03479882
-0.30675438 0.01515545 -0.02600425
-0.30386841 0.01720249 -0.02514193
-0.29768854 0.02071383 -0.01720278
-0.29671922 0.02117116 -0.01503804
-0.22895570 0.02287954 0.02249071
-0.21301384 0.02458563 0.02557265
-0.30207697 0.01830700 -0.01238362
-0.29514316 0.02167894 -0.01071251
-0.29393905 0.02175821 -0.02802831
-0.30098528 0.01918966 -0.02285924
-0.29956251 0.01975073 -0.00846756
-0.30015790 0.01910290 -0.00636048
-0.29957613 0.01996670 -0.02148939
-0.29393923 0.02212135 -0.02150426
-0.27594718 0.02389499 0.00794402
-0.28099155 0.01923614 0.00759221
-0.29836860 0.01973175 -0.00397795
-0.29943755 0.01824688 -0.00337104
-0.27852756 0.01953581 0.00927594
-0.27728161 0.02023068 0.00830502
-0.28786954 0.02161139 -0.00057065
-0.28831658 0.02020782 0.00074132
-0.25866547 0.02269358 0.01425271
-0.26116174 0.02019808 0.01429376
-0.28575435 0.02094463 0.00258830
-0.27891034 0.02345059 0.00638529
-0.20550756 0.02445127 0.02633770
-0.19516358 0.02521096 0.02787822
-0.24847779 0.02296360 0.01739433
-0.22945733 0.02603151 0.02146779
-0.19053321 0.02537535 0.02743242
-0.17700142 0.02819481 0.02790234
-0.23697160 0.02273102 0.02003420
-0.22827797 0.02425160 0.02220996
-0.27422068 0.02569924 -0.04293853
-0.29130557 0.02101985 -0.03583013
-0.30245626 0.01704916 -0.02747728
-0.29475996 0.02067440 -0.02971359
-0.29244485 0.02320307 -0.01906733
-0.29288504 0.02317968 -0.01698992
-0.22690722 0.02407436 0.02183763
-0.20345925 0.02628677 0.02459705
-0.30170533 0.01837622 -0.01256045
-0.28906760 0.02510573 -0.01120293
-0.29228064 0.02258454 -0.02841652
-0.29157841 0.02339303 -0.02658687
-0.29881775 0.02037393 -0.00875845
-0.30026740 0.01887945 -0.00659164
-0.29156733 0.02347310 -0.02457231
-0.29155323 0.02353554 -0.02229857
-0.27775538 0.02327580 0.00704574
-0.27915350 0.02117385 0.00772377
-0.29767731 0.01970718 -0.00500707
-0.29536664 0.02019685 -0.00354847
-0.26961213 0.02519006 0.01027616
-0.26981539 0.02281945 0.01067198
-0.28912908 0.02126361 -0.00143101
-0.28866822 0.02027781 0.00001167
-0.25651136 0.02431522 0.01385236
-0.25350699 0.02466800 0.01563009
-0.28856623 0.01911179 0.00071459
-0.28159773 0.02247856 0.00502149
-0.20879920 0.02482576 0.02526852
-0.18927594 0.02725329 0.02639300
-0.24733354 0.02432496 0.01694300
-0.23136766 0.02632958 0.02044604
-0.17756975 0.02936286 0.02718811
-0.17418189 0.02921971 0.02693478
-0.22943328 0.02574251 0.02079602
-0.23667067 0.02210363 0.02040030
-0.28147811 0.02428244 -0.04098240
-0.28745386 0.02283708 -0.03747480
-0.30140379 0.01750860 -0.02778033
-0.29331836 0.02157204 -0.02982112
-0.29213986 0.02342992 -0.01874363
-0.29525203 0.02213075 -0.01524570
-0.21218097 0.02774498 0.02354415
-0.20535313 0.02695641 0.02331023
-0.29523727 0.02212066 -0.01362473
-0.29301378 0.02308360 -0.01162408
-0.29114178 0.02314352 -0.02838242
-0.28954318 0.02443317 -0.02702479
-0.29584369 0.02176493 -0.00971873
-0.29225427 0.02276202 -0.00763562
-0.29161188 0.02361155 -0.02399085
-0.29741609 0.02075025 -0.01912955
-0.27730373 0.02407768 0.00675412
-0.27742040 0.02323822 0.00775684
-0.29516685 0.02109598 -0.00536632
-0.29784730 0.01984887 -0.00383955
-0.26919994 0.02555429 0.00990567
-0.27830639 0.02003343 0.00807890
-0.28782958 0.02233016 -0.00180190
-0.28392473 0.02376464 0.00080335
-0.26258451 0.02333810 0.01240022
-0.25390616 0.02460721 0.01485838
-0.28192714 0.02393067 0.00298017
-0.28237486 0.02197547 0.00406026
-0.19232610 0.02800356 0.02530375
-0.17256950 0.03160986 0.02578929
-0.24374719 0.02431048 0.01617609
-0.22670320 0.02836086 0.01869546
-0.17665970 0.02993232 0.02623471
-0.14525628 0.03313369 0.02488133
-0.22954574 0.02654024 0.02008917
-0.23152207 0.02519208 0.02016981
-0.27294743 0.02533271 -0.04347567
-0.28430334 0.02388663 -0.03823118
-0.29273826 0.02146882 -0.03226244
-0.29437312 0.02117379 -0.02879311
-0.27926415 0.02887889 -0.02256183
-0.28872609 0.02503992 -0.01787544
-0.21602726 0.02777928 0.02275289
-0.19127227 0.02995368 0.02346359
-0.29497522 0.02253092 -0.01394668
-0.29253840 0.02347910 -0.01221492
-0.28247494 0.02663021 -0.03157454
-0.28391987 0.02670085 -0.02872965
-0.27741593 0.03042815 -0.01200686
-0.28563339 0.02567575 -0.00838392
-0.29357401 0.02262439 -0.02236385
-0.29208705 0.02330975 -0.02083187
-0.27598563 0.02524775 0.00639170
-0.27820152 0.02285803 0.00696594
-0.28920737 0.02348392 -0.00568961
-0.29663080 0.01958511 -0.00493034
-0.26420131 0.02623186 0.01108644
-0.27512732 0.02250325 0.00762747
-0.29117972 0.02094310 -0.00299235
-0.27353814 0.02916141 -0.00018170
-0.25296515 0.02742966 0.01397112
-0.24689837 0.02682418 0.01411064
-0.28456461 0.02210972 0.00080789
-0.27203277 0.02870230 0.00399764
-0.19367443 0.02850519 0.02436464
-0.17784190 0.03004471 0.02575600
-0.24647391 0.02448275 0.01522783
-0.22303832 0.03055274 0.01853914
-0.15975338 0.03286790 0.02330211
-0.13201673 0.03497474 0.02398061
-0.22677626 0.02694669 0.01906766
-0.22096257 0.02901841 0.02129932
-0.28167203 0.02367640 -0.03976906
-0.29495060 0.01917555 -0.03201240
-0.28779051 0.02384545 -0.03426787
-0.28796270 0.02433944 -0.03159668
-0.28123590 0.02845283 -0.02167639
-0.27764910 0.02959633 -0.02074653
-0.19278468 0.03098284 0.02135784
-0.19070527 0.02983979 0.02306533
-0.29149216 0.02437953 -0.01513556
-0.29006758 0.02485740 -0.01259455
-0.27457803 0.02857596 -0.03372951
-0.28303781 0.02715511 -0.02861117
-0.28880456 0.02498948 -0.01097090
-0.29387394 0.02183587 -0.00845555
-0.28038821 0.02766551 -0.02717125
-0.29112020 0.02395584 -0.02096882
-0.27353454 0.02655999 0.00614661
-0.27391136 0.02568146 0.00777091
-0.29192898 0.02208374 -0.00615124
-0.29058036 0.02180186 -0.00469503
-0.26710457 0.02690006 0.00928745
-0.27185699 0.02490741 0.01029215
-0.27856129 0.02823276 -0.00218123
-0.27908963 0.02711129 0.00042584
-0.24668586 0.02855936 0.01332000
-0.24304381 0.02899865 0.01400861
-0.28254020 0.02368589 0.00091730
-0.27779028 0.02561847 0.00407154
-0.16510181 0.03387805 0.02305425
-0.15249960 0.03519721 0.02362856
-0.23081125 0.02998899 0.01684908
-0.23217918 0.02718272 0.01694542
-0.12024722 0.03552594 0.02184681
-0.21864685 0.03097096 0.01972666
-0.21962412 0.02932418 0.02062267
-0.27225178 0.02531584 -0.04311170
-0.27955207 0.02526122 -0.03937833
-0.28737408 0.02422803 -0.03414926
-0.28392974 0.02580826 -0.03278061
-0.27494842 0.03035909 -0.02336449
-0.28293672 0.02775134 -0.01867234
-0.17355902 0.03530445 0.02039902
-0.13950804 0.03858969 0.01967476
-0.29120424 0.02413212 -0.01370087
-0.28199497 0.02812984 -0.01394835
-0.27010292 0.03026832 -0.03471934
-0.27531961 0.02945822 -0.03042194
-0.28352639 0.02728346 -0.01158051
-0.28349423 0.02640823 -0.00944458
-0.28025389 0.02795525 -0.02683430
-0.28237107 0.02746237 -0.02381686
-0.27199489 0.02755173 0.00571772
-0.27642888 0.02461918 0.00611406
-0.28802216 0.02298603 -0.00709194
-0.29795143 0.02035101 -0.00389403
-0.26602983 0.02802186 0.00890566
-0.26780701 0.02609715 0.00915843
-0.28001902 0.02747298 -0.00243031
-0.27553159 0.02888665 -0.00033478
-0.25176999 0.02848954 0.01271571
-0.24750069 0.02746433 0.01295476
-0.28302678 0.02341432 0.00043797
-0.27079862 0.02925704 0.00336130
-0.22821026 0.03041341 0.01578649
-0.20115013 0.03432992 0.01571275
-0.19828115 0.03360980 0.01758296
-0.19798124 0.03180351 0.01905933
-0.26931912 0.02550933 -0.04327362
-0.27371544 0.02601415 -0.04047994
-0.28783375 0.02385898 -0.03320050
-0.28243285 0.02634727 -0.03299591
-0.28033802 0.02852374 -0.02136193
-0.27586979 0.03006434 -0.02065268
-0.28489536 0.02636420 -0.01567575
-0.26795015 0.03261924 -0.01762907
-0.27448216 0.02915817 -0.03303110
-0.27494803 0.02982304 -0.03034860
-0.27369395 0.03063356 -0.01333847
-0.28018284 0.02836988 -0.00979834
-0.27319422 0.03042426 -0.02860881
-0.27195108 0.03118668 -0.02683779
-0.27057534 0.02862478 0.00542447
-0.27408829 0.02593068 0.00695420
-0.28317931 0.02614347 -0.00727637
-0.27764025 0.02889252 -0.00546472
-0.27006662 0.02686939 0.00903230
-0.25958645 0.02913152 0.01063552
-0.27056208 0.03020215 -0.00390341
-0.27869719 0.02731048 -0.00055312
-0.23799801 0.03346082 0.01233817
-0.23865978 0.03024744 0.01280959
-0.27415830 0.02892942 0.00106008
-0.27890593 0.02538970 0.00332310
-0.20483905 0.03617808 0.01394519
-0.26598179 0.02569859 -0.04335271
-0.27045527 0.02646476 -0.04105561
-0.27432305 0.02700730 -0.03744856
-0.27555054 0.02800777 -0.03457959
-0.25287518 0.03354558 -0.02788233
-0.27198246 0.03155243 -0.02145155
-0.26548782 0.03345020 -0.02074204
-0.26686803 0.03282608 -0.01743002
-0.25561056 0.03394687 -0.01798771
-0.27760863 0.02888702 -0.01063297
-0.27417132 0.03047049 -0.02588820
-0.27190727 0.02800621 0.00508212
-0.26558781 0.03015199 0.00663625
-0.27975607 0.02797660 -0.00743987
-0.27027449 0.03024544 -0.00696747
-0.25774488 0.03245577 0.00968365
-0.26269156 0.03155455 -0.00559118
-0.25775185 0.03398489 -0.00385550
-0.26904616 0.03023177 0.00015568
-0.27215183 0.02868913 0.00272494
-0.08982468 0.04965304 -0.04596547
-0.09649099 0.04564842 -0.04489261
-0.08722260 0.04820909 -0.04299689
-0.09236147 0.04472863 -0.04016845
-0.07744148 0.04609125 -0.03780958
-0.06444108 0.04844088 -0.03622285
-0.04123764 0.05025276 -0.03343127
-0.02287859 0.05100226 -0.03598754
-0.08928139 0.05016492 -0.04629930
-0.09263805 0.04891041 -0.04505790
-0.09370203 0.04724192 -0.04300268
-0.09287149 0.04657638 -0.04117795
-0.06782997 0.04978577 -0.03677295
-0.06050478 0.05129595 -0.03648987
-0.04759396 0.05065765 -0.03453582
-0.03011602 0.05179535 -0.03697515
-0.08187393 0.05199422 -0.04744189
-0.09095839 0.05000755 -0.04483458
-0.09149216 0.04954516 -0.04399949
-0.08526158 0.05082852 -0.04246162
-0.06386767 0.05250146 -0.03589211
-0.06359050 0.05217955 -0.03810449
-0.04354547 0.05200086 -0.03423285
-0.02238810 0.05514284 -0.03613132
-0.08599105 0.05290655 -0.04598696
-0.09075162 0.05137242 -0.04509939
-0.08975209 0.05086853 -0.04400152
-0.08484436 0.05257919 -0.04296799
-0.07116583 0.05204230 -0.03847169
-0.05929187 0.05432753 -0.03656805
-0.05176923 0.05456657 -0.03706207
-0.03566774 0.05491558 -0.03664214
-0.08585535 0.05457729 -0.04629928
-0.08808915 0.05331359 -0.04544968
-0.08488541 0.05379803 -0.04378365
-0.08399777 0.05325574 -0.04243123
-0.06883300 0.05445755 -0.03845097
-0.06657140 0.05471887 -0.03951800
-0.05398901 0.05658893 -0.03742860
-0.02515723 0.05951314 -0.03674075
-0.08743970 0.05501305 -0.04582187
-0.09346714 0.05334349 -0.04532346
-0.08555260 0.05544769 -0.04383088
-0.08823445 0.05375418 -0.04386073
-0.06713244 0.05598770 -0.03847273
-0.06096423 0.05808967 -0.03721370
-0.05651064 0.05902770 -0.03760671
-0.02817438 0.06037683 -0.03696335
-0.07546194 0.05754432 -0.04830921
-0.09042692 0.05656968 -0.04534711
-0.09167520 0.05537671 -0.04477121
-0.09043972 0.05583174 -0.04447364
-0.08058883 0.05661907 -0.04254504
-0.06397723 0.05997180 -0.03904657
-0.05781141 0.06075471 -0.03779185
-0.03015996 0.06204034 -0.03735309
-0.08799528 0.05752567 -0.04572229
-0.09255573 0.05757803 -0.04532721
-0.08527751 0.05896240 -0.04337250
-0.08551533 0.05872299 -0.04314669
-0.06882615 0.05968751 -0.03910521
-0.06457597 0.06133670 -0.03910145
-0.05333750 0.06157355 -0.03704989
-0.03088201 0.06399872 -0.03733674
-0.08709478 0.06010881 -0.04527576
-0.08897178 0.06039781 -0.04428557
-0.08700086 0.06036396 -0.04379617
-0.09614103 0.05707918 -0.04257651
-0.06946988 0.06172415 -0.03860363
-0.06513456 0.06219254 -0.03987996
-0.05370411 0.06338577 -0.03712513
-0.02395535 0.06554461 -0.03657573
-0.08285539 0.06191092 -0.04704112
-0.09004899 0.06164648 -0.04440663
-0.08984245 0.06204122 -0.04397325
-0.08804470 0.06193889 -0.04378715
-0.07680393 0.06259127 -0.04137509
-0.06246451 0.06429709 -0.03783052
-0.05747376 0.06488907 -0.03839965
-0.03041766 0.06786166 -0.03689621
-0.08334734 0.06399646 -0.04659607
-0.09052615 0.06225456 -0.04451775
-0.08953455 0.06295314 -0.04435512
-0.08974305 0.06318545 -0.04479413
-0.06351354 0.06637194 -0.03475339
-0.05705553 0.06706457 -0.03539127
-0.05853481 0.06675157 -0.03900864
-0.03634981 0.06929325 -0.03661995
-0.09073004 0.06390599 -0.04382978
-0.09000742 0.06461205 -0.04433766
-0.09044846 0.06500802 -0.04456197
-0.07061431 0.06724607 -0.03974467
-0.06275374 0.06799514 -0.03835849
-0.04979509 0.06963735 -0.03500044
-0.03613111 0.07118552 -0.03638886
-0.09045705 0.06589832 -0.04324558
-0.08841065 0.06711135 -0.04341558
-0.09268615 0.06555136 -0.04266966
-0.07996836 0.06826784 -0.04203322
-0.06297532 0.06973366 -0.03880265
-0.04152101 0.07254450 -0.03340536
-0.03200709 0.07203448 -0.03581363
-0.08967877 0.06830193 -0.04259373
-0.08838934 0.06887456 -0.04339270
-0.08909242 0.06867967 -0.04418541
-0.07285714 0.07068574 -0.04037756
-0.06215020 0.07169110 -0.03879708
-0.05722579 0.07227234 -0.03808289
-0.03688767 0.07454206 -0.03597856
-0.09156300 0.06897311 -0.04437429
-0.08957782 0.06999670 -0.04373459
-0.08637501 0.07132964 -0.04304194
-0.06913977 0.07368644 -0.03768288
-0.05885501 0.07357692 -0.03603953
-0.05645157 0.07309214 -0.03776601
-0.03689099 0.07656540 -0.03581810
-0.08957430 0.07263147 -0.04199324
-0.08738929 0.07272787 -0.04301810
-0.08789977 0.07254165 -0.04372566
-0.06622036 0.07533981 -0.03506825
-0.06284453 0.07550170 -0.03720206
-0.06251720 0.07553637 -0.03952973
-0.03870747 0.07839762 -0.03621927
-0.08753379 0.07503562 -0.04167897
-0.09136973 0.07243074 -0.04362843
-0.08926158 0.07393354 -0.04413244
-0.07369401 0.07663787 -0.03883374
-0.06165142 0.07677899 -0.03610422
-0.06003000 0.07723938 -0.03843150
-0.03852156 0.08015665 -0.03592073
-0.08930694 0.07594705 -0.04178099
-0.09008637 0.07519145 -0.04362438
-0.08832829 0.07591645 -0.04373078
-0.07438042 0.07828908 -0.03979103
-0.06831087 0.07885450 -0.03904951
-0.05624443 0.07912700 -0.03663487
-0.03743060 0.08324243 -0.03465845
-0.08331672 0.07913392 -0.04187579
-0.08792534 0.07820325 -0.04247091
-0.09112959 0.07701144 -0.04401200
-0.07324153 0.08027388 -0.03797591
-0.06463934 0.08104902 -0.03686696
-0.06391577 0.08102429 -0.03937520
-0.03683495 0.08561268 -0.03484010
-0.09171383 0.07829714 -0.04323144
-0.08988867 0.07938945 -0.04322673
-0.08985939 0.07973144 -0.04330353
-0.08117785 0.08022446 -0.04227868
-0.06513656 0.08283462 -0.03672164
-0.06568161 0.08289250 -0.03953069
-0.03647644 0.08748151 -0.03472586
-0.09150480 0.08035852 -0.04265537
-0.09229562 0.07970306 -0.04356056
-0.08815560 0.08146791 -0.04330499
-0.07685144 0.08312418 -0.03975611
-0.07128012 0.08392981 -0.03967246
-0.06535430 0.08450466 -0.03905924
-0.03577708 0.09051689 -0.03479875
-0.08969589 0.08315330 -0.04207078
-0.09144878 0.08150794 -0.04371000
-0.08924158 0.08298077 -0.04388319
-0.07090971 0.08568131 -0.03536468
-0.07421869 0.08494564 -0.04135718
-0.06069592 0.08779258 -0.03694376
-0.04436502 0.09008039 -0.03627244
-0.09165895 0.08346757 -0.04306100
-0.08488920 0.08621927 -0.04139700
-0.09247582 0.08355768 -0.04430975
-0.07383024 0.08696848 -0.03826560
-0.07004558 0.08728021 -0.03925547
-0.06089557 0.09029734 -0.03700047
-0.03994280 0.09229497 -0.03638054
-0.08861621 0.08715629 -0.04177894
0.01237393 0.10211226 -0.04114177
-0.09208812 0.08534139 -0.04424455
-0.08970028 0.08648763 -0.04468149
-0.07623047 0.08831162 -0.03951664
-0.06842422 0.08983278 -0.03813798
-0.06365874 0.09092744 -0.03766720
-0.03494556 0.09517078 -0.03559502
-0.09146185 0.08816191 -0.04255150
0.00223798 0.10209276 -0.03638982
-0.09853363 0.08597187 -0.04212105
-0.08934426 0.08838059 -0.04456820
-0.07953319 0.08980443 -0.04082092
-0.06550801 0.09229031 -0.03631651
-0.06257880 0.09313361 -0.03710967
-0.03590766 0.09671025 -0.03537510
-0.09312711 0.08950357 -0.04280851
-0.01672211 0.10199714 -0.03741377
-0.09333106 0.08872583 -0.04419810
-0.08159146 0.09191942 -0.04015659
-0.06895608 0.09383509 -0.03518458
-0.07070569 0.09323241 -0.03963065
-0.05846630 0.09572870 -0.03603654
-0.03220924 0.09933253 -0.03421339
-0.08604399 0.09376031 -0.04226708
-0.00743209 0.10479829 -0.03550896
-0.09060770 0.09230363 -0.04357881
-0.08340607 0.09328379 -0.04149657
-0.07785776 0.09411187 -0.04154250
-0.06571757 0.09607028 -0.03633407
-0.06416582 0.09621672 -0.03811061
-0.04286567 0.09958831 -0.03689589
-0.09240147 0.09309392 -0.04345101
-0.02145106 0.10499507 -0.03664265
-0.09372121 0.09203497 -0.04381534
-0.08140081 0.09558473 -0.03937502
-0.07228985 0.09671442 -0.03734790
-0.06311687 0.09846884 -0.03552772
-0.06459756 0.09797198 -0.03810823
-0.03809439 0.10228539 -0.03536695
-0.09331603 0.09412929 -0.04314466
-0.01339933 0.10803988 -0.03509326
-0.09095757 0.09531931 -0.04423376
-0.08974877 0.09582086 -0.04425827
-0.08031274 0.09751462 -0.04165349
-0.06625552 0.09903094 -0.03706494
-0.05972088 0.10088535 -0.03674852
-0.03774498 0.10412300 -0.03499708
-0.09256269 0.09656582 -0.04341681
-0.01623649 0.10952478 -0.03512033
-0.08590712 0.09861035 -0.04153570
-0.09209471 0.09700960 -0.04434141
-0.07419568 0.10048739 -0.03716215
-0.06026626 0.10260995 -0.03413280
-0.05931307 0.10256061 -0.03634225
-0.03941811 0.10577092 -0.03490679
-0.09126946 0.09871531 -0.04369010
-0.01592020 0.11169771 -0.03486697
-0.09227320 0.09863265 -0.04460355
-0.09150285 0.09895046 -0.04423169
-0.08347335 0.10043877 -0.04202179
-0.07991641 0.10100739 -0.04158898
-0.06778619 0.10289701 -0.03911240
-0.04290751 0.10730823 -0.03561795
-0.09142479 0.10075147 -0.04217743
-0.01565900 0.11404560 -0.03419329
-0.08850424 0.10203674 -0.04334727
-0.09004413 0.10107377 -0.04424156
-0.07905956 0.10333162 -0.03907850
-0.05987430 0.10670939 -0.03410685
-0.06365737 0.10560004 -0.03844852
-0.04158354 0.10971032 -0.03431384
-0.08988569 0.10345555 -0.04231910
-0.01789375 0.11571739 -0.03398746
-0.09216407 0.10194004 -0.04365546
-0.09661116 0.10051502 -0.04190993
-0.07888914 0.10467529 -0.03950775
-0.07644389 0.10569514 -0.03978682
-0.06425335 0.10749457 -0.03838338
-0.04759551 0.11048904 -0.03628857
-0.08785576 0.10598052 -0.04215463
-0.01502121 0.11799312 -0.03369936
-0.09149986 0.10416280 -0.04407103
-0.09427048 0.10271669 -0.04304860
-0.07289222 0.10828254 -0.03583176
-0.07012547 0.10877963 -0.03780753
-0.05966494 0.10993604 -0.03663000
-0.04362090 0.11286358 -0.03456840
-0.09051400 0.10646552 -0.04260396
-0.02184295 0.11964003 -0.03405542
-0.10301888 0.10248519 -0.04140661
-0.08858749 0.10700647 -0.04371270
-0.06786308 0.11140905 -0.03406417
-0.07289612 0.10980538 -0.03847894
-0.06421849 0.11165552 -0.03769084
-0.04535002 0.11461949 -0.03458911
-0.08705347 0.10972498 -0.04280259
-0.02362631 0.12121642 -0.03376069
-0.08894537 0.10864162 -0.04424254
-0.08929610 0.10859686 -0.04427911
-0.07945729 0.11059102 -0.03827219
-0.07650732 0.11094777 -0.03912270
-0.06127363 0.11378542 -0.03658592
-0.04482250 0.11673083 -0.03367597
-0.08984903 0.11035720 -0.04262945
-0.02692067 0.12251021 -0.03395799
-0.09058425 0.10975568 -0.04358199
-0.09202550 0.10884998 -0.04318155
-0.08239797 0.11140189 -0.04153548
-0.07957796 0.11169633 -0.04051206
-0.06607258 0.11579181 -0.03719056
-0.03965143 0.11992464 -0.03139870
-0.08756370 0.11309472 -0.04332552
-0.02898950 0.12365110 -0.03434310
-0.09127000 0.11109001 -0.04339144
-0.09243631 0.11055648 -0.04317395
-0.07607070 0.11517978 -0.03670221
-0.07319011 0.11569747 -0.03897028
-0.06595153 0.11739191 -0.03710473
-0.04712480 0.12022162 -0.03375576
-0.08402419 0.11580875 -0.04296226
-0.02233112 0.12761287 -0.03297829
-0.08804139 0.11470330 -0.04239288
-0.09280583 0.11289524 -0.04387411
-0.07466884 0.11697855 -0.03619519
-0.06819233 0.11900803 -0.03546675
-0.06913188 0.11879644 -0.03742069
-0.04742895 0.12222691 -0.03308875
-0.08121569 0.11823293 -0.04333045
-0.02901799 0.12925756 -0.03460278
-0.09080730 0.11565321 -0.04282985
-0.09402687 0.11342964 -0.04240726
-0.07175935 0.11990418 -0.03414469
-0.06970222 0.12014776 -0.03550531
-0.06956218 0.12020178 -0.03748804
-0.04772790 0.12421335 -0.03291466
-0.09047081 0.11720669 -0.04279794
-0.02535454 0.13029476 -0.03290303
-0.08932387 0.11778433 -0.04306053
-0.08620811 0.11855815 -0.04241814
-0.08003049 0.11919247 -0.03839137
-0.07237761 0.12102584 -0.03772527
-0.06723560 0.12271010 -0.03634413
-0.04843157 0.12590070 -0.03292421
-0.07983463 0.12141632 -0.04350903
-0.02667036 0.13258815 -0.03317384
-0.09269322 0.11810809 -0.04294297
-0.08882570 0.11974712 -0.04259985
-0.07690716 0.12173641 -0.03678247
-0.06958809 0.12383857 -0.03507090
-0.06689708 0.12445807 -0.03648425
-0.04912175 0.12770011 -0.03253753
-0.08507029 0.12211561 -0.04205942
-0.02981427 0.13423255 -0.03379926
-0.08877096 0.12167804 -0.04186562
-0.09625282 0.11848824 -0.04185772
-0.07655337 0.12403110 -0.03617524
-0.07235170 0.12497351 -0.03637966
-0.06993690 0.12549247 -0.03799244
-0.05328295 0.12999538 -0.03398564
-0.08643365 0.12342416 -0.04197858
-0.03037404 0.13586445 -0.03367919
-0.09415880 0.12214668 -0.04090120
-0.09447500 0.12110262 -0.04326825
-0.07573045 0.12596516 -0.03513766
-0.07067389 0.12698402 -0.03500426
-0.07044439 0.12731293 -0.03771555
-0.05486948 0.13146673 -0.03405022
-0.03053283 0.13790609 -0.03370588
-0.09534383 0.12367642 -0.04068669
-0.09190350 0.12466674 -0.04289278
-0.08372869 0.12604140 -0.04087496
-0.07431664 0.12833953 -0.03799971
-0.07040706 0.12915827 -0.03780371
-0.05719838 0.13287756 -0.03468421
-0.02609848 0.14073490 -0.03189531
-0.09447120 0.12411813 -0.04256433
-0.09251095 0.12640364 -0.04219651
-0.07944746 0.12873204 -0.03690056
-0.06770281 0.13176467 -0.03210878
-0.06167485 0.13324246 -0.03239939
-0.04861150 0.13529626 -0.03071029
-0.03062527 0.14192404 -0.03298223
-0.09324480 0.12806855 -0.04069985
-0.09210984 0.12810718 -0.04270545
-0.07789582 0.13153706 -0.03548785
-0.07431863 0.13206890 -0.03759041
-0.06098771 0.13535051 -0.03163132
-0.05752079 0.13581428 -0.03408559
-0.02716611 0.14462876 -0.03152567
-0.09817858 0.12745501 -0.04180207
-0.09135267 0.13015065 -0.04195268
-0.07998489 0.13306490 -0.03716153
-0.07538608 0.13377859 -0.03734176
-0.06635819 0.13579534 -0.03456893
-0.05639204 0.13806511 -0.03346310
-0.02930993 0.14582074 -0.03183795
-0.09521551 0.12992667 -0.04196452
-0.08971880 0.13268790 -0.03969574
-0.07793374 0.13524401 -0.03454300
-0.07399079 0.13607469 -0.03611200
-0.07150196 0.13653290 -0.03717003
-0.05078925 0.14058080 -0.03084100
-0.03030143 0.14747764 -0.03172862
-0.09469844 0.13274419 -0.04062356
-0.09346346 0.13298570 -0.04284398
-0.07954670 0.13689248 -0.03612196
-0.08045980 0.13586672 -0.04054666
-0.06222013 0.14052343 -0.03156320
-0.06087564 0.14083023 -0.03512774
-0.03372775 0.14870884 -0.03222786
-0.00094280 0.15685338 -0.03496573
-0.08789773 0.13706774 -0.03761545
-0.09510753 0.13363162 -0.04262748
-0.08243367 0.13719282 -0.03965979
-0.06779636 0.14135663 -0.03094430
-0.07742122 0.13888988 -0.04020524
-0.06013285 0.14292312 -0.03445484
-0.03569098 0.15045874 -0.03237689
-0.02037383 0.15438494 -0.03393327
-0.09429631 0.13653870 -0.04028813
-0.09207094 0.13722984 -0.04140666
-0.08212461 0.13924001 -0.03874752
-0.07695631 0.14097227 -0.03677742
-0.07192415 0.14208509 -0.03622092
-0.06065989 0.14476620 -0.03456556
-0.03002293 0.15365045 -0.03017833
-0.01599903 0.15731736 -0.03214822
-0.09271889 0.13889384 -0.04000769
-0.09007034 0.13981864 -0.04025141
-0.08070458 0.14230463 -0.03642933
-0.07494031 0.14345598 -0.03500446
-0.07206454 0.14394777 -0.03589021
-0.06176614 0.14644383 -0.03482793
-0.03870603 0.15429023 -0.03279675
-0.02319151 0.15803938 -0.03336270
-0.09573723 0.13831371 -0.04200813
-0.09345123 0.14042623 -0.04224107
-0.08903322 0.14171897 -0.04272311
-0.07707265 0.14484420 -0.03700368
-0.07028909 0.14651038 -0.03486557
-0.06512557 0.14751087 -0.03573112
-0.03652277 0.15630881 -0.03159177
-0.02271157 0.16022660 -0.03310236
-0.09491835 0.14134298 -0.04116156
-0.09470255 0.14155011 -0.04244717
-0.07888296 0.14563489 -0.03517842
-0.07304122 0.14789298 -0.03358254
-0.07349861 0.14756225 -0.03708364
-0.05620572 0.15179224 -0.03107433
-0.03529794 0.15820418 -0.03122204
-0.02227681 0.16225594 -0.03260949
-0.09659519 0.14171918 -0.04212034
-0.09224246 0.14451608 -0.04147619
-0.08005746 0.14813149 -0.03484948
-0.07746295 0.14749821 -0.03748678
-0.07514439 0.14919108 -0.03769335
-0.05736381 0.15351644 -0.03155534
-0.02956785 0.16223067 -0.02842098
-0.02392386 0.16407539 -0.03301490
-0.09236144 0.14708202 -0.03947489
-0.09508350 0.14461589 -0.04227943
-0.08582735 0.14786379 -0.04129861
-0.07596003 0.15106094 -0.03479608
-0.07636930 0.15071568 -0.03845446
-0.06305223 0.15381482 -0.03520685
-0.03837181 0.16121526 -0.03324614
-0.01783699 0.16717997 -0.03175176
-0.09280609 0.14902377 -0.03942046
-0.09628485 0.14537068 -0.04139177
-0.08002482 0.15130189 -0.03509390
-0.07733738 0.15248427 -0.03613609
-0.06764503 0.15500045 -0.03240164
-0.06016816 0.15592575 -0.03294481
-0.03431776 0.16490543 -0.03088546
-0.02174981 0.16865134 -0.03221912
-0.09047867 0.15150148 -0.03893980
-0.09319879 0.14973481 -0.04226478
-0.08245170 0.15241489 -0.03828700
-0.07756989 0.15442878 -0.03554105
-0.06805573 0.15679175 -0.03180405
-0.06138174 0.15822531 -0.03357468
-0.03530233 0.16721968 -0.03063661
-0.02943380 0.16894694 -0.03365852
-0.09427343 0.15104331 -0.04121617
-0.09255759 0.15153682 -0.04239871
-0.08764084 0.15330684 -0.04242501
-0.07987664 0.15507118 -0.03619960
-0.07806354 0.15614544 -0.03880907
-0.06056160 0.16063996 -0.03233191
-0.03394381 0.16967647 -0.02982184
-0.02812091 0.17108800 -0.03289328
-0.09244812 0.15433127 -0.04030785
-0.09197766 0.15366308 -0.04277693
-0.08153468 0.15655562 -0.03481286
-0.07925112 0.15711771 -0.03572810
-0.07681365 0.15838955 -0.03751016
-0.06177437 0.16276011 -0.03284160
-0.03807388 0.17079698 -0.03079166
-0.02587464 0.17362449 -0.03182267
-0.09084316 0.15686004 -0.03831552
-0.09376015 0.15438467 -0.04299833
-0.08529567 0.15758298 -0.03934414
-0.07693118 0.16051964 -0.03414107
-0.07176422 0.16201726 -0.03459461
-0.06222576 0.16415952 -0.03288035
-0.04009962 0.17247388 -0.03138857
-0.02252955 0.17676915 -0.03134948
-0.09451362 0.15505369 -0.04273333
-0.09295180 0.15657434 -0.04319860
-0.08350581 0.15992637 -0.03623933
-0.07955176 0.16079167 -0.03593196
-0.07788876 0.16197397 -0.03854059
-0.06325508 0.16565938 -0.03367055
-0.04817441 0.17546223 -0.03395326
-0.03216838 0.17644304 -0.03296900
-0.09385002 0.15938833 -0.04010408
-0.09233242 0.15935603 -0.04210949
-0.08053572 0.16315205 -0.03346524
-0.07744400 0.16437620 -0.03441570
-0.08002684 0.16273931 -0.03871315
-0.06012968 0.16993850 -0.03053705
-0.04733057 0.17501353 -0.03306029
-0.02645351 0.17964257 -0.03130174
-0.09241367 0.16154641 -0.03949590
-0.09098264 0.16211030 -0.04034927
-0.08135964 0.16471881 -0.03400749
-0.07928820 0.16549554 -0.03632692
-0.07874905 0.16556750 -0.03891606
-0.06074350 0.17073309 -0.03086605
-0.04880396 0.17602639 -0.03312767
-0.03204198 0.18059984 -0.03211835
-0.09308733 0.16215970 -0.04147591
-0.09082782 0.16394244 -0.04107132
-0.08375859 0.16534191 -0.03770668
-0.07945757 0.16730852 -0.03698420
-0.06785195 0.17125262 -0.03005036
-0.06291258 0.17189524 -0.03206168
-0.04659060 0.17830439 -0.03208732
-0.03684539 0.18148166 -0.03344103
-0.09279558 0.16481611 -0.04076974
-0.09240980 0.16312718 -0.04301504
-0.08081506 0.16886841 -0.03510067
-0.07827763 0.17001310 -0.03624657
-0.07980184 0.16877764 -0.03888472
-0.06437685 0.17319800 -0.03293799
-0.04263929 0.18127544 -0.03015509
-0.03269744 0.18451922 -0.03248503
-0.09038264 0.16815534 -0.03941618
-0.09220116 0.16511743 -0.04280021
-0.08075707 0.17066918 -0.03501049
-0.07495356 0.17343940 -0.03187344
-0.07904584 0.17140347 -0.03958739
-0.05791257 0.17674316 -0.02994430
-0.04402415 0.18300438 -0.03031923
-0.03548129 0.18580851 -0.03286339
-0.09199383 0.16867335 -0.04081993
-0.09035113 0.16948718 -0.04168109
-0.08207544 0.17207667 -0.03604858
-0.08036618 0.17210554 -0.03705031
-0.07079409 0.17562953 -0.03179689
-0.06230875 0.17746003 -0.03088887
-0.03845668 0.18682976 -0.02791048
-0.03502968 0.18791820 -0.03241915
-0.08397351 0.17476769 -0.03913385
-0.08932843 0.17162225 -0.04170883
-0.08103061 0.17440431 -0.03507192
-0.07857742 0.17532814 -0.03562471
-0.07813019 0.17532012 -0.03800573
-0.06857692 0.17809393 -0.03505136
-0.04527853 0.18730277 -0.03081263
-0.02636949 0.19236699 -0.03054115
-0.09140384 0.17262320 -0.04091524
-0.08913486 0.17376432 -0.04152079
-0.08251336 0.17585883 -0.03718262
-0.07850306 0.17736962 -0.03502632
-0.07553784 0.17802811 -0.03487802
-0.06941260 0.17977296 -0.03565846
-0.04703101 0.18854927 -0.03193956
-0.03577069 0.19188507 -0.03247446
-0.09080095 0.17435984 -0.04112241
-0.08674810 0.17690255 -0.04018799
-0.08665460 0.17619710 -0.04185279
-0.07890309 0.17927809 -0.03436158
-0.07975228 0.17823781 -0.03781996
-0.06390978 0.18212759 -0.03116011
-0.03996456 0.19253328 -0.02810193
-0.04184760 0.19236210 -0.03368994
-0.08897273 0.17785880 -0.03954370
-0.08763588 0.17825310 -0.04076798
-0.08620670 0.17832594 -0.04059001
-0.07044892 0.18362127 -0.03049668
-0.07126828 0.18358009 -0.03170306
-0.06785264 0.18406312 -0.03498573
-0.04648206 0.19318525 -0.03025500
-0.03418218 0.19671123 -0.03201770
-0.08598717 0.18126585 -0.03867746
-0.08970366 0.17926095 -0.04138337
-0.08416501 0.18101193 -0.03794387
-0.07912600 0.18266092 -0.03298395
-0.08161931 0.18171450 -0.03849702
-0.07200558 0.18483025 -0.03714870
-0.04736882 0.19457354 -0.02992946
-0.03289231 0.19931659 -0.03164336
-0.09052847 0.18087168 -0.03959147
-0.09111551 0.17865065 -0.04213777
-0.08414655 0.18317737 -0.03810643
-0.08183582 0.18380179 -0.03556691
-0.08093751 0.18390721 -0.03775076
-0.06640080 0.18968759 -0.03277070
-0.04838515 0.19625008 -0.02991049
-0.03946076 0.19940341 -0.03197663
-0.08601438 0.18474378 -0.03871022
-0.09009133 0.18162054 -0.04151101
-0.08562532 0.18432952 -0.03877116
-0.08208710 0.18566194 -0.03558100
-0.08611502 0.18403128 -0.03847434
-0.06491411 0.19201690 -0.03110214
-0.05374128 0.19650415 -0.03104377
-0.03984953 0.20143242 -0.03186433
-0.09147031 0.18205899 -0.04176194
-0.08586313 0.18615489 -0.03777937
-0.08174489 0.18796659 -0.03583977
-0.07225467 0.19100529 -0.03087495
-0.05805452 0.19596085 -0.02617621
-0.05692159 0.19761337 -0.03180711
-0.04271529 0.20243047 -0.03210602
-0.08905476 0.18649805 -0.04039259
-0.08461691 0.18916535 -0.03571563
-0.08240654 0.18916963 -0.03647147
-0.07518168 0.19255397 -0.03290940
-0.07182135 0.19295946 -0.03601483
-0.05661597 0.19979802 -0.03095975
-0.03670641 0.20559998 -0.03047574
-0.09122788 0.18687116 -0.04140117
-0.08574993 0.19035147 -0.03772097
-0.07939813 0.19254445 -0.03239382
-0.07050107 0.19595942 -0.02889509
-0.07177255 0.19486952 -0.03566150
-0.05809262 0.20113583 -0.03141303
-0.04407030 0.20616236 -0.03119159
-0.09016261 0.19084084 -0.03769557
-0.08704125 0.19159193 -0.03852263
-0.08318374 0.19317079 -0.03626520
-0.07736570 0.19467679 -0.03398028
-0.07183097 0.19705003 -0.03572259
-0.05669580 0.20368217 -0.02968332
-0.04876773 0.20688714 -0.03205760
-0.09081134 0.19061910 -0.04109368
-0.08698833 0.19399044 -0.03611354
-0.07560855 0.19792607 -0.02993447
-0.07753715 0.19611600 -0.03508926
-0.07134977 0.19925915 -0.03531641
-0.05361891 0.20705861 -0.02770651
-0.04839116 0.20878871 -0.03166903
-0.09061757 0.19474611 -0.03564199
-0.08730964 0.19541030 -0.03679750
-0.08334506 0.19732812 -0.03591000
-0.08338587 0.19685087 -0.03978670
-0.06800226 0.20246603 -0.03226817
-0.05606750 0.20810296 -0.02878417
-0.04764179 0.21097842 -0.03096804
-0.09150269 0.19626418 -0.03652651
-0.08825462 0.19703862 -0.03815992
-0.07780211 0.20106395 -0.03090339
-0.07225673 0.20322880 -0.03070749
-0.06496374 0.20538071 -0.02868455
-0.05438268 0.21108405 -0.02730869
-0.05146660 0.21198526 -0.03025496
-0.09122980 0.19682680 -0.03935516
-0.08981049 0.19831525 -0.03948146
-0.07515413 0.20401588 -0.03013498
-0.07679090 0.20340677 -0.03418140
-0.06359324 0.20790961 -0.02789653
-0.05859216 0.21128689 -0.03096265
-0.04645467 0.21433304 -0.02992427
-0.09183058 0.19747700 -0.04105166
-0.08664717 0.20202695 -0.03468735
-0.08516742 0.20147437 -0.03864354
-0.07837994 0.20450380 -0.03549746
-0.07063179 0.20756112 -0.03465623
-0.05721364 0.21363032 -0.02865428
-0.04644756 0.21554361 -0.02857596
-0.09297761 0.19870910 -0.04094906
-0.00639691 0.23176724 -0.02927402
-0.08721991 0.20376302 -0.03550896
-0.08454402 0.20424861 -0.03667197
-0.07362389 0.20880817 -0.03128696
-0.07146299 0.20938028 -0.03476860
-0.05780917 0.21420148 -0.03121393
-0.05384545 0.21752949 -0.03047673
-0.09323182 0.20042889 -0.04078221
-0.01571384 0.23269831 -0.03075888
-0.08622199 0.20627314 -0.03385790
-0.07762932 0.20957543 -0.03039096
-0.08254675 0.20748028 -0.03790863
-0.07299863 0.21074635 -0.03500687
-0.05709850 0.21755916 -0.02874952
-0.05080671 0.22068720 -0.02908275
-0.09152723 0.20301259 -0.04040886
-0.00953009 0.23523310 -0.02956010
-0.08814017 0.20686348 -0.03581376
-0.07894228 0.21126591 -0.03089596
-0.08201993 0.20914932 -0.03721729
-0.07430913 0.21273607 -0.03446062
-0.06001871 0.21944347 -0.02962004
-0.05503512 0.22119357 -0.03087969
-0.09161783 0.20459986 -0.04043211
-0.01300039 0.23585312 -0.02887266
-0.08135137 0.21317585 -0.03427804
-0.08293969 0.21112135 -0.03444012
-0.08177994 0.21143493 -0.03591501
-0.07468600 0.21446183 -0.03465811
-0.05660821 0.22290136 -0.02667696
-0.05085775 0.22473975 -0.02897114
-0.08746396 0.21187934 -0.03585452
-0.01901476 0.23804536 -0.02843310
-0.08650551 0.21183291 -0.03526833
-0.08560372 0.21148142 -0.03769123
-0.08258304 0.21271989 -0.03603593
-0.06986680 0.21836400 -0.02850201
-0.05781451 0.22450623 -0.02675461
-0.05423956 0.22540361 -0.03005388
-0.08743533 0.21343200 -0.03594157
-0.01701044 0.23844844 -0.02774376
-0.08675697 0.21097340 -0.03883033
-0.08438944 0.21446463 -0.03559600
-0.07814213 0.21758239 -0.03214090
-0.07290587 0.21914658 -0.03194401
-0.05892209 0.22597161 -0.02695192
-0.05442971 0.22781292 -0.03012350
-0.08602746 0.21676970 -0.03632003
-0.01722028 0.24091206 -0.02752391
-0.08412307 0.21814413 -0.03476668
-0.08338974 0.21775231 -0.03308324
-0.08210272 0.21761893 -0.03425130
-0.07818279 0.21887481 -0.03460766
-0.06581567 0.22588967 -0.03126303
-0.05182681 0.23127462 -0.02876627
-0.08444163 0.21973243 -0.03704003
-0.02451238 0.24176031 -0.02801592
-0.08776549 0.21485707 -0.03879032
-0.08500962 0.21790363 -0.03597410
-0.08323689 0.21882105 -0.03557115
-0.07291070 0.22300728 -0.02924617
-0.06005622 0.22967564 -0.02708846
-0.05013525 0.23450695 -0.02880809
-0.08540228 0.22128068 -0.03687200
-0.02426003 0.24363396 -0.02736996
-0.08632468 0.21941815 -0.03704318
-0.08549991 0.21898752 -0.03669219
-0.08507616 0.21961614 -0.03738831
-0.07274673 0.22519271 -0.02937650
-0.05977586 0.23201868 -0.02660994
-0.06104460 0.23140498 -0.03175754
-0.02932512 0.24428859 -0.02810372
-0.08623420 0.22268969 -0.03510598
-0.08511678 0.22290294 -0.03512639
-0.08225334 0.22423895 -0.03368788
-0.07652552 0.22560869 -0.03243333
-0.05603152 0.23554930 -0.02501153
-0.05607171 0.23524413 -0.02917004
-0.02293250 0.24825825 -0.02731331
-0.08625992 0.22407386 -0.03614774
-0.08488185 0.22513559 -0.03475025
-0.08335344 0.22537272 -0.03563165
-0.07915553 0.22663139 -0.03474161
-0.06619190 0.23367438 -0.02950268
-0.05760084 0.23675255 -0.02919592
-0.02607809 0.24943882 -0.02766408
-0.08607546 0.22659107 -0.03565285
-0.08551993 0.22659039 -0.03501650
-0.08600373 0.22425550 -0.03657941
-0.08340688 0.22663409 -0.03665804
-0.07148068 0.23370203 -0.03334605
-0.05741109 0.23894489 -0.02854805
-0.03246181 0.24961655 -0.02846818
-0.08745078 0.22634919 -0.03502061
-0.08248576 0.23091187 -0.03149343
-0.08149926 0.23066230 -0.03175218
-0.06941788 0.23499721 -0.02548363
-0.06342775 0.23923182 -0.02690374
-0.06297173 0.23926878 -0.03036460
-0.03208881 0.25107124 -0.02827046
-0.08681461 0.23039462 -0.03375644
-0.08456332 0.23163009 -0.03430972
-0.08447848 0.23052432 -0.03650496
-0.07254964 0.23561446 -0.02884895
-0.07072682 0.23856674 -0.03225192
-0.04997979 0.24656568 -0.02662122
-0.03064541 0.25416365 -0.02832710
-0.08774460 0.23137215 -0.03437263
-0.08300471 0.23435919 -0.03263037
-0.07988625 0.23493060 -0.03044957
-0.08284398 0.23265201 -0.03649272
-0.06779592 0.24200349 -0.03053259
-0.05731867 0.24542663 -0.02765393
-0.03513898 0.25508311 -0.02905926
-0.08783681 0.23301207 -0.03489164
-0.08815461 0.23049429 -0.03622991
-0.08699889 0.23231500 -0.03765044
-0.07610180 0.23822792 -0.03145747
-0.06232324 0.24631949 -0.02595117
-0.06383660 0.24522845 -0.03069158
-0.02053394 0.26256475 -0.02532404
-0.08699931 0.23620316 -0.03349167
-0.08706674 0.23443562 -0.03655020
-0.07923054 0.23908493 -0.03077934
-0.07456210 0.24135809 -0.03038112
-0.06438395 0.24716441 -0.02671005
-0.05891472 0.24916482 -0.02873252
-0.03082668 0.26117253 -0.02783141
-0.08264695 0.24109976 -0.03402879
-0.08469816 0.23933198 -0.03501217
-0.08596701 0.23819363 -0.03717399
-0.07480604 0.24361035 -0.03031016
-0.06006688 0.25124434 -0.02497246
-0.06045974 0.25070390 -0.02858560
-0.02996358 0.26357383 -0.02722821
-0.08232301 0.24350326 -0.03436693
-0.08708586 0.23789744 -0.03660041
-0.07799273 0.24416645 -0.03228464
-0.07774322 0.24290505 -0.03351576
-0.06138185 0.25280198 -0.02527515
-0.05902877 0.25346285 -0.02799889
-0.04004764 0.26125494 -0.02865457
-0.08456336 0.24399616 -0.03367522
-0.08649231 0.24174678 -0.03612108
-0.07994357 0.24556351 -0.03343787
-0.07843234 0.24587220 -0.03449840
-0.06628086 0.25277671 -0.02740035
-0.06596754 0.25261408 -0.03052980
-0.03510272 0.26607260 -0.02758583
-0.08407022 0.24679476 -0.03425057
-0.08664152 0.24396555 -0.03645726
-0.08582831 0.24418665 -0.03567669
-0.07713987 0.24885769 -0.03410206
-0.06499436 0.25580665 -0.02589997
-0.05979220 0.25809696 -0.02780437
-0.04680247 0.26335207 -0.02948241
-0.08333255 0.24909413 -0.03419701
-0.08626192 0.24665724 -0.03646233
-0.07537182 0.25225914 -0.02938377
-0.07463874 0.25202119 -0.03051919
-0.06898267 0.25582749 -0.02911765
-0.06393990 0.25837308 -0.02839913
-0.04483292 0.26675582 -0.02891242
-0.00258378 0.28428799 -0.02832106
-0.08730882 0.24675699 -0.03515593
-0.08203299 0.25149485 -0.03340215
-0.08058514 0.25211102 -0.03256609
-0.07637899 0.25315470 -0.03200198
-0.06512592 0.26036417 -0.02554358
-0.06416314 0.26062262 -0.02830535
-0.04006590 0.27059776 -0.02727368
-0.01833459 0.28095984 -0.02816268
-0.08776567 0.25040984 -0.03317335
-0.08527322 0.25174484 -0.03458119
-0.08674213 0.24833673 -0.03599392
-0.08175775 0.25283343 -0.03564027
-0.07018290 0.25975370 -0.02930519
-0.06938364 0.25938460 -0.03148516
-0.03675073 0.27440992 -0.02623558
-0.02238263 0.28074729 -0.02898927
-0.08290476 0.25572410 -0.03466989
-0.08595751 0.25039211 -0.03532748
-0.08705489 0.25185171 -0.03658736
-0.08478174 0.25311756 -0.03699377
-0.06759711 0.26344663 -0.02599438
-0.06765212 0.26301911 -0.02974215
-0.03795920 0.27630177 -0.02574517
-0.02660638 0.28090754 -0.02944050
-0.08732041 0.25446731 -0.03362744
-0.08635988 0.25503206 -0.03371257
-0.08310416 0.25730231 -0.03385445
-0.07191197 0.26174995 -0.02553496
-0.06988407 0.26432982 -0.02641452
-0.06645186 0.26565641 -0.02923585
-0.04394010 0.27542484 -0.02751036
-0.01866356 0.28637555 -0.02684394
-0.08677388 0.25726089 -0.03368158
-0.08251090 0.26046777 -0.03324411
-0.07908706 0.26120362 -0.02972015
-0.08249901 0.25876716 -0.03599843
-0.07272484 0.26571682 -0.02887551
-0.06370243 0.26904663 -0.02811287
-0.03805732 0.28011525 -0.02664847
-0.02639573 0.28544277 -0.02825742
-0.08471902 0.26085231 -0.03414501
-0.08660746 0.25909069 -0.03346843
-0.08564491 0.25787717 -0.03509957
-0.08338010 0.26089448 -0.03489933
-0.06413349 0.27215725 -0.02347827
-0.06529847 0.27124804 -0.02822790
-0.03945338 0.28165027 -0.02683775
-0.02557426 0.28881493 -0.02812051
-0.08328744 0.26410541 -0.03475526
-0.08331642 0.26408032 -0.03302516
-0.08647069 0.25833395 -0.03479767
-0.08453568 0.26163983 -0.03599897
-0.06765528 0.27224305 -0.02551215
-0.07359951 0.26927865 -0.03183322
-0.03813221 0.28449705 -0.02564117
-0.02814227 0.28943527 -0.02880619
-0.08622862 0.26356015 -0.03392470
-0.08588212 0.26346251 -0.03364475
-0.08553926 0.26211545 -0.03514431
-0.08083691 0.26610324 -0.02976332
-0.07405786 0.27096090 -0.02837072
-0.05863956 0.27811599 -0.02481147
-0.04240870 0.28512290 -0.02661967
-0.03204574 0.29003084 -0.02880046
-0.08243400 0.26875913 -0.03545190
-0.08651137 0.26536161 -0.03371297
-0.08565471 0.26562920 -0.03319840
-0.08229629 0.26742083 -0.03252177
-0.06708735 0.27675197 -0.02461025
-0.07149775 0.27412382 -0.02931220
-0.04115805 0.28829956 -0.02557260
-0.02288482 0.29696631 -0.02778026
-0.08400314 0.26989123 -0.03484356
-0.08620040 0.26792216 -0.03376657
-0.08602198 0.26752466 -0.03286523
-0.08369062 0.26881856 -0.03388109
-0.07189076 0.27685040 -0.02665799
-0.06856738 0.27789998 -0.02845654
-0.04471804 0.28928176 -0.02661795
-0.03949887 0.29198131 -0.02889128
-0.08128936 0.27358019 -0.03630141
-0.08261836 0.27287549 -0.03148876
-0.08690551 0.26928315 -0.03265769
-0.07719346 0.27439073 -0.02649994
-0.07165851 0.27904904 -0.02545469
-0.07115527 0.27886331 -0.02855617
-0.04220260 0.29262850 -0.02497899
-0.03322620 0.29661387 -0.02839954
-0.08780178 0.27137074 -0.03250884
-0.08599735 0.27246922 -0.03245371
-0.08346588 0.27335015 -0.03301454
-0.07423675 0.28009328 -0.02662245
-0.07272632 0.28040218 -0.03116394
-0.04883392 0.29187804 -0.02780793
-0.03843225 0.29651520 -0.02837081
-0.08753590 0.27330106 -0.03238381
-0.08574963 0.27191481 -0.03469694
-0.07823528 0.27823368 -0.02562150
-0.07918859 0.27834147 -0.03207009
-0.07391966 0.28208977 -0.03127168
-0.04793927 0.29432112 -0.02687241
-0.03610010 0.30017453 -0.02810189
-0.08824143 0.27563104 -0.03098487
-0.08715986 0.27498093 -0.03365137
-0.08752629 0.27383921 -0.03448428
-0.07380610 0.28451970 -0.02666131
-0.07491537 0.28417289 -0.03153598
-0.04976314 0.29576668 -0.02743229
-0.03500137 0.30310512 -0.02746179
-0.08877888 0.27717376 -0.03147633
-0.08467636 0.28017956 -0.03134566
-0.08306981 0.27948844 -0.03448926
-0.07873082 0.28234828 -0.03177593
-0.06791972 0.28985977 -0.02848892
-0.04815315 0.29830906 -0.02603217
-0.03700134 0.30451649 -0.02757720
-0.08720704 0.28007931 -0.03234610
-0.08611701 0.28013983 -0.03501768
-0.08499935 0.28064728 -0.03504637
-0.07635558 0.28691620 -0.02858953
-0.07245794 0.28923517 -0.03043716
-0.04953361 0.30032372 -0.02635767
-0.03377012 0.30831820 -0.02685936
-0.08755746 0.28216106 -0.03244255
-0.08530780 0.28366518 -0.03254785
-0.08084272 0.28546122 -0.03019201
-0.07699595 0.28842822 -0.03003828
-0.06936813 0.29368445 -0.02906628
-0.04576789 0.30474406 -0.02545875
-0.03417939 0.31028703 -0.02531116
-0.08694937 0.28653705 -0.03093112
-0.08604877 0.28462881 -0.03478555
-0.08989745 0.28083968 -0.03342417
-0.07732352 0.29043865 -0.03042599
-0.07090824 0.29581976 -0.02979938
-0.04963022 0.30477020 -0.02616232
-0.03837255 0.31040001 -0.02602981
-0.09179731 0.28141636 -0.03587216
-0.08665659 0.28779665 -0.03354956
-0.08262712 0.28879637 -0.03152983
-0.08024482 0.29170430 -0.03177385
-0.06690032 0.29960766 -0.02665124
-0.05322924 0.30549377 -0.02658229
-0.03800096 0.31318325 -0.02585554
-0.08722278 0.28755131 -0.03398378
-0.08486471 0.29182768 -0.02932587
-0.08586646 0.28785869 -0.03524783
-0.07801908 0.29648879 -0.02928385
-0.06874883 0.30053547 -0.02723484
-0.05605595 0.30650204 -0.02694702
-0.04375599 0.31266835 -0.02642310
-0.08822239 0.29166672 -0.03092012
-0.08723854 0.28814968 -0.03571257
-0.08117094 0.29387563 -0.02892980
-0.07719400 0.29874700 -0.02907012
-0.06704563 0.30382165 -0.02471156
-0.06111973 0.30629796 -0.02831629
-0.04965485 0.31150836 -0.02795694
-0.08637711 0.29170510 -0.03394283
-0.08585730 0.29161224 -0.03601946
-0.07975037 0.29913607 -0.02592776
-0.07758079 0.30011752 -0.02898505
-0.07523979 0.30163082 -0.03167082
-0.06035485 0.30881160 -0.02768788
-0.04228831 0.31804737 -0.02500005
-0.08865331 0.29550803 -0.03122645
-0.08610315 0.29357991 -0.03537377
-0.08656191 0.29454038 -0.03573573
-0.08128187 0.29883730 -0.03231148
-0.07477652 0.30394673 -0.03096825
-0.06602103 0.30857262 -0.02945888
-0.05040599 0.31654957 -0.02682392
-0.08787702 0.29647785 -0.03250475
-0.08548493 0.29936916 -0.03067380
-0.08226195 0.29946685 -0.03137981
-0.08006942 0.30202293 -0.03180882
-0.07209097 0.30773228 -0.02844655
-0.06089138 0.31290054 -0.02487213
-0.04762385 0.32116899 -0.02535801
-0.08265480 0.30471489 -0.03246108
-0.08718007 0.30041885 -0.03183975
-0.08109924 0.30277380 -0.02934314
-0.07618936 0.30815199 -0.02590183
-0.07228271 0.30990574 -0.02885370
-0.05876810 0.31550846 -0.02352335
-0.04780266 0.32349023 -0.02494964
-0.08768722 0.30256760 -0.03172821
-0.08797973 0.29915398 -0.03558012
-0.08464537 0.30232266 -0.03411910
-0.07041602 0.31413528 -0.02197264
-0.07513171 0.31104895 -0.02900964
-0.06341308 0.31642026 -0.02571262
-0.04351368 0.32716671 -0.02334595
-0.08376227 0.30769166 -0.03184784
