6.233803927898406982e-03 3.622146323323249817e-02 -3.183966502547264099e-02
-1.612926274538040161e-02 3.580129146575927734e-02 -2.901137992739677429e-02
6.409402191638946533e-02 3.208649531006813049e-02 -3.093196265399456024e-02
3.182672709226608276e-02 7.614240050315856934e-02 -4.851227998733520508e-02
5.812522023916244507e-03 8.639644086360931396e-02 -3.740544244647026062e-02
-1.769620180130004883e-02 5.876268073916435242e-02 -3.176571801304817200e-02
2.168506756424903870e-02 3.413802385330200195e-02 -4.065090045332908630e-02
1.362190395593643188e-02 3.150585293769836426e-02 -8.784679695963859558e-03
6.308475136756896973e-02 2.822587639093399048e-02 -4.232966899871826172e-02
6.378521025180816650e-02 2.711261250078678131e-02 -4.755223542451858521e-02
5.317924544215202332e-03 5.130776017904281616e-02 -4.076715931296348572e-02
-1.002698112279176712e-02 6.736751645803451538e-02 -3.944556415081024170e-02
6.698962301015853882e-03 3.529592230916023254e-02 -1.059863716363906860e-03
4.269840195775032043e-02 3.075926564633846283e-02 -4.402947425842285156e-02
-1.252874638885259628e-02 3.685678541660308838e-02 -1.529441773891448975e-02
1.454899832606315613e-02 3.403436392545700073e-02 -3.479548543691635132e-02
5.474666133522987366e-03 3.512565046548843384e-02 -2.088866010308265686e-02
2.049676701426506042e-02 3.079924918711185455e-02 -4.167015105485916138e-02
5.842947214841842651e-02 2.870609983801841736e-02 -3.042976930737495422e-02
4.925663769245147705e-02 3.235290572047233582e-02 -5.053337663412094116e-02
-1.728356815874576569e-02 4.044278338551521301e-02 -1.752875372767448425e-02
5.971905589103698730e-02 2.735503576695919037e-02 -3.111655637621879578e-02
2.072564885020256042e-02 5.394346266984939575e-02 -5.025689303874969482e-02
6.271994858980178833e-02 3.033307567238807678e-02 -2.068992145359516144e-02
-6.056384183466434479e-03 4.104645550251007080e-02 -2.012559771537780762e-02
-8.808809332549571991e-03 3.451149538159370422e-02 2.322367392480373383e-02
5.182995647192001343e-02 3.543572872877120972e-02 1.316667720675468445e-02
5.076923966407775879e-02 2.982995472848415375e-02 -3.422285243868827820e-02
1.715032011270523071e-02 6.155575439333915710e-02 -4.932285100221633911e-02
-1.153232902288436890e-02 3.340827301144599915e-02 -2.736103907227516174e-02
2.382566407322883606e-02 3.159328177571296692e-02 -1.763585209846496582e-02
2.953516691923141479e-02 3.008502535521984100e-02 -4.544903710484504700e-02
3.411069512367248535e-02 3.348550200462341309e-02 -5.000244081020355225e-02
-1.267123781144618988e-02 4.405831173062324524e-02 -2.831374108791351318e-02
-1.856187358498573303e-03 3.370060399174690247e-02 -2.048358693718910217e-02
1.799019798636436462e-02 3.196116909384727478e-02 -3.959563374519348145e-02
3.049963340163230896e-02 3.663447871804237366e-02 -4.706314206123352051e-02
6.522329896688461304e-02 3.222021460533142090e-02 -2.715080976486206055e-03
1.159756071865558624e-02 7.260306179523468018e-02 -4.425338655710220337e-02
4.476918280124664307e-02 3.508796915411949158e-02 -2.561309933662414551e-02
3.673020377755165100e-02 3.698640316724777222e-02 9.995248168706893921e-03
4.762201011180877686e-02 2.831859327852725983e-02 -2.182361111044883728e-02
-1.817464455962181091e-02 3.938871622085571289e-02 -3.457145765423774719e-02
1.310886070132255554e-02 3.306697681546211243e-02 -4.543007165193557739e-02
-1.046387758105993271e-02 7.717155665159225464e-02 -3.429466485977172852e-02
2.308455854654312134e-02 3.132277727127075195e-02 -3.728944808244705200e-02
-1.571715809404850006e-02 4.537224769592285156e-02 1.006012223660945892e-02
-1.418571919202804565e-02 4.057937860488891602e-02 -4.170553386211395264e-02
3.423476591706275940e-03 3.671536222100257874e-02 -2.200927585363388062e-02
-1.216577365994453430e-02 4.041272401809692383e-02 -3.829202800989151001e-02
7.063077762722969055e-03 4.157715290784835815e-02 -2.491382323205471039e-02
1.745271682739257812e-02 3.682755306363105774e-02 -9.876408614218235016e-03
1.189801841974258423e-04 3.412979096174240112e-02 -3.894791752099990845e-02
4.035959020256996155e-02 5.916806310415267944e-02 -4.772605001926422119e-02
5.835799872875213623e-02 2.773337438702583313e-02 -2.927915751934051514e-02
-1.186278741806745529e-02 4.369059577584266663e-02 1.108158007264137268e-02
6.137378513813018799e-03 3.837877511978149414e-02 1.458345167338848114e-02
-4.092910327017307281e-03 3.349050134420394897e-02 -1.547498721629381180e-02
2.876535430550575256e-02 3.614094853401184082e-02 1.420610956847667694e-02
5.516903102397918701e-02 2.886579744517803192e-02 -5.220360308885574341e-02
3.156171739101409912e-02 7.984576374292373657e-02 -4.567137733101844788e-02
-1.514327339828014374e-02 4.116459563374519348e-02 -3.606735169887542725e-02
-7.675948552787303925e-03 4.105417802929878235e-02 -3.355327993631362915e-02
-1.422303169965744019e-02 3.865717351436614990e-02 2.054237015545368195e-02
2.253941446542739868e-02 3.294160962104797363e-02 -1.744756661355495453e-02
-1.814473420381546021e-02 4.201224073767662048e-02 -3.242431581020355225e-02
-1.404184475541114807e-02 4.172043502330780029e-02 -3.638662397861480713e-02
-2.730404958128929138e-03 6.248243898153305054e-02 -4.357200860977172852e-02
5.559384822845458984e-03 3.986771032214164734e-02 -5.010506138205528259e-03
-1.418599486351013184e-02 3.735098242759704590e-02 -2.497303113341331482e-02
-1.252378895878791809e-02 5.775735899806022644e-02 -3.462408483028411865e-02
6.002675741910934448e-03 2.946584112942218781e-02 -3.148244693875312805e-02
3.410268202424049377e-02 2.855197340250015259e-02 -1.534992922097444534e-02
4.437600076198577881e-02 3.090673685073852539e-02 -4.129781574010848999e-02
1.357577368617057800e-02 4.004181176424026489e-02 -4.051043465733528137e-02
4.554167389869689941e-02 5.685799941420555115e-02 -4.820344597101211548e-02
5.195500701665878296e-02 2.853615768253803253e-02 -4.094471782445907593e-02
-1.034964900463819504e-02 3.743384033441543579e-02 -3.566803410649299622e-02
1.820048689842224121e-02 3.174910694360733032e-02 -2.461664006114006042e-02
4.093073308467864990e-02 3.143826499581336975e-02 2.218546904623508453e-02
5.559624731540679932e-02 2.904340624809265137e-02 -3.424866497516632080e-02
-3.913014195859432220e-03 3.357434645295143127e-02 -1.471472252160310745e-02
6.432035937905311584e-03 5.691375955939292908e-02 -4.731112346053123474e-02
3.093575313687324524e-02 8.002718538045883179e-02 -4.393313825130462646e-02
8.052065968513488770e-04 7.009606063365936279e-02 -3.916211053729057312e-02
-1.185263320803642273e-02 3.971347957849502563e-02 1.984205283224582672e-02
2.890637516975402832e-02 3.553643450140953064e-02 -4.117103666067123413e-02
3.307301178574562073e-02 3.429016470909118652e-02 -3.147846460342407227e-02
-5.636596120893955231e-03 3.485710546374320984e-02 -3.816937655210494995e-02
-1.707547158002853394e-02 4.291433468461036682e-02 -4.315144941210746765e-02
-1.374473981559276581e-02 3.841991350054740906e-02 -3.226530179381370544e-02
-7.444889284670352936e-03 6.146433204412460327e-02 -3.794658929109573364e-02
-2.739794552326202393e-03 3.055605851113796234e-02 -6.556333974003791809e-03
2.723142132163047791e-02 2.983839623630046844e-02 -3.332935273647308350e-02
2.771239355206489563e-02 4.269653558731079102e-02 -4.898650199174880981e-02
1.802672445774078369e-02 3.452468663454055786e-02 -4.044601693749427795e-02
7.208523899316787720e-02 2.753995917737483978e-02 -3.648268431425094604e-02
3.277893364429473877e-02 2.917189523577690125e-02 -4.133369028568267822e-02
-1.008944120258092880e-02 3.461718559265136719e-02 2.269041351974010468e-02
5.283790081739425659e-02 3.100434504449367523e-02 -6.511489860713481903e-03
-4.301720298826694489e-03 8.936930447816848755e-02 -3.961776569485664368e-02
3.475266695022583008e-02 6.464364379644393921e-02 -5.184520035982131958e-02
4.850754886865615845e-02 2.636549063026905060e-02 -4.656835645437240601e-02
2.108215913176536560e-02 4.487106204032897949e-02 -4.503343254327774048e-02
2.687031775712966919e-02 3.316310420632362366e-02 -4.470523074269294739e-02
6.380098313093185425e-02 3.263068944215774536e-02 -5.066978931427001953e-02
-9.834384545683860779e-03 6.700807064771652222e-02 -3.957948833703994751e-02
2.751400694251060486e-02 3.744711726903915405e-02 -4.904272407293319702e-02
4.705775529146194458e-02 3.107996284961700439e-02 -5.165264010429382324e-02
2.515820786356925964e-03 3.143043071031570435e-02 -1.310567744076251984e-02
1.779976114630699158e-02 6.292184442281723022e-02 -4.320689663290977478e-02
2.818715572357177734e-02 3.390888124704360962e-02 -1.955915614962577820e-02
5.914603173732757568e-02 2.935316599905490875e-02 -8.151725865900516510e-03
2.680201455950737000e-02 4.324452579021453857e-02 -4.602962732315063477e-02
1.399943232536315918e-02 3.233049809932708740e-02 -2.918571978807449341e-02
3.350876271724700928e-02 3.039402887225151062e-02 -4.612309485673904419e-02
1.688641309738159180e-02 3.021281212568283081e-02 -9.233066812157630920e-03
7.684631273150444031e-03 3.348826244473457336e-02 -1.304227299988269806e-02
1.080963760614395142e-03 3.616151213645935059e-02 2.411122433841228485e-02
7.389687001705169678e-03 3.833604604005813599e-02 -3.673968464136123657e-02
2.750407904386520386e-03 4.353973641991615295e-02 -1.981499977409839630e-02
5.916735529899597168e-02 3.115699440240859985e-02 -2.837179228663444519e-02
5.380059033632278442e-02 3.799896314740180969e-02 -3.758094087243080139e-02
6.385898590087890625e-02 2.775504067540168762e-02 -2.769696712493896484e-02
1.741927117109298706e-02 3.536736592650413513e-02 6.233189254999160767e-03
-1.051162276417016983e-02 3.485007211565971375e-02 -2.666209079325199127e-02
2.556391060352325439e-03 8.194340765476226807e-02 -3.694087266921997070e-02
-4.859579727053642273e-03 3.576891869306564331e-02 -3.312321752309799194e-02
9.113181382417678833e-03 3.769377619028091431e-02 -7.150601595640182495e-04
-1.488924399018287659e-02 3.903131932020187378e-02 -3.113430365920066833e-02
2.488335594534873962e-03 4.007690772414207458e-02 -9.856797754764556885e-03
-1.109749544411897659e-02 3.981701657176017761e-02 -1.733167096972465515e-02
4.078649356961250305e-02 3.260119259357452393e-02 1.817860640585422516e-02
5.272459238767623901e-04 3.416381403803825378e-02 -1.207693107426166534e-02
3.687277063727378845e-02 4.570914432406425476e-02 -4.875230044126510620e-02
2.526067197322845459e-03 3.576915711164474487e-02 -2.221141010522842407e-02
1.271209865808486938e-02 4.436426982283592224e-02 -4.314504191279411316e-02
6.515764445066452026e-02 3.251422196626663208e-02 -2.631916105747222900e-02
4.372799396514892578e-02 2.933117933571338654e-02 1.834252290427684784e-02
2.341741696000099182e-02 3.184130042791366577e-02 -5.380198359489440918e-03
-6.101315841078758240e-03 3.442006930708885193e-02 -2.177339419722557068e-02
5.398160219192504883e-02 3.004330582916736603e-02 -4.695489257574081421e-02
-1.595760509371757507e-02 3.908555954694747925e-02 -3.334442898631095886e-02
2.875605970621109009e-02 3.853360190987586975e-02 -3.319757059216499329e-02
-3.235762938857078552e-03 3.669093176722526550e-02 -2.998156100511550903e-02
4.725967347621917725e-02 2.950012870132923126e-02 -9.881108999252319336e-04
4.799786955118179321e-02 2.938745357096195221e-02 -4.962030798196792603e-02
5.781180411577224731e-02 3.165486827492713928e-02 1.508626155555248260e-02
3.939468786120414734e-02 3.334705904126167297e-02 2.906316891312599182e-03
6.966983899474143982e-03 4.009595885872840881e-02 -4.057335853576660156e-02
5.704984068870544434e-03 3.921813890337944031e-02 2.316325716674327850e-02
2.872513979673385620e-02 3.239658847451210022e-02 -3.911801427602767944e-02
1.960466802120208740e-02 6.996409595012664795e-02 -4.732474684715270996e-02
-6.148847751319408417e-03 3.930108249187469482e-02 -8.757084608078002930e-03
-1.612032018601894379e-02 4.095964133739471436e-02 2.931488677859306335e-03
4.884067177772521973e-02 3.101233951747417450e-02 -4.969393461942672729e-02
2.704799175262451172e-02 3.763139620423316956e-02 2.299362607300281525e-02
2.848736941814422607e-02 6.419534981250762939e-02 -4.538649320602416992e-02
3.554138913750648499e-02 4.583094641566276550e-02 -4.885742068290710449e-02
5.651833117008209229e-02 2.775151655077934265e-02 -4.847583919763565063e-02
-7.313509471714496613e-03 3.301075845956802368e-02 -3.339038789272308350e-02
-9.202530607581138611e-03 3.804731741547584534e-02 2.312748320400714874e-02
1.257876306772232056e-02 3.233248740434646606e-02 -8.439033292233943939e-03
4.910925775766372681e-02 3.043822012841701508e-02 -1.301855873316526413e-02
2.120071649551391602e-02 4.060187563300132751e-02 -4.963412135839462280e-02
4.400587826967239380e-02 2.971192076802253723e-02 -3.540429472923278809e-02
1.085212454199790955e-03 3.779578581452369690e-02 1.712397672235965729e-02
5.175842344760894775e-02 2.759007364511489868e-02 -5.248232185840606689e-02
-1.377604715526103973e-02 4.747538268566131592e-02 -3.646640479564666748e-02
-1.642554439604282379e-02 3.723015263676643372e-02 -1.354965008795261383e-02
8.835850283503532410e-03 4.106451198458671570e-02 1.154423505067825317e-02
4.717203229665756226e-02 3.098282031714916229e-02 -4.106631875038146973e-02
-9.878288954496383667e-03 4.596764221787452698e-02 -3.894551843404769897e-02
1.507612317800521851e-02 3.605881333351135254e-02 -4.081535339355468750e-02
9.040854871273040771e-03 4.262821748852729797e-02 -3.871235251426696777e-02
-7.253426127135753632e-03 4.620123282074928284e-02 -3.022385761141777039e-02
7.738143205642700195e-03 4.102810844779014587e-02 8.023550733923912048e-03
1.949859410524368286e-02 3.735768422484397888e-02 5.985673516988754272e-03
-8.214324712753295898e-03 6.810521334409713745e-02 -3.871254622936248779e-02
-6.629265844821929932e-04 3.259332850575447083e-02 -1.446575205773115158e-02
2.785565331578254700e-03 3.523058444261550903e-02 -3.628605604171752930e-02
2.512004226446151733e-02 3.464896604418754578e-02 2.553050406277179718e-02
4.128314927220344543e-02 3.344657644629478455e-02 -1.765964552760124207e-02
-1.402989774942398071e-02 4.293827712535858154e-02 -2.284126542508602142e-02
9.987229481339454651e-03 7.448451966047286987e-02 -3.987206518650054932e-02
5.260670930147171021e-02 2.929329872131347656e-02 -2.907808497548103333e-02
5.722882226109504700e-03 3.787583857774734497e-02 -4.120427742600440979e-02
3.601283580064773560e-02 3.207483515143394470e-02 1.956485025584697723e-02
3.008597344160079956e-02 4.085199162364006042e-02 -4.632013291120529175e-02
-1.306594628840684891e-02 3.976817056536674500e-02 -1.250796858221292496e-02
-1.163635775446891785e-02 3.735736012458801270e-02 -1.759020239114761353e-02
2.142890915274620056e-02 2.783905714750289917e-02 1.541862264275550842e-03
5.166753381490707397e-02 2.524827420711517334e-02 -3.155904263257980347e-02
4.993165284395217896e-02 2.661513537168502808e-02 9.122250601649284363e-03
4.043321684002876282e-02 3.235022723674774170e-02 -2.277605980634689331e-02
5.213739350438117981e-03 3.226525709033012390e-02 -1.381061412394046783e-02
1.005843281745910645e-03 3.764301910996437073e-02 -2.160301618278026581e-02
2.219557762145996094e-03 3.271736949682235718e-02 -9.451478719711303711e-03
-9.071698412299156189e-03 3.682072088122367859e-02 -3.528943657875061035e-02
1.107106357812881470e-02 3.815667331218719482e-02 -3.488860279321670532e-02
2.257319912314414978e-02 3.710558637976646423e-02 2.433037944138050079e-02
6.305605173110961914e-02 2.753195725381374359e-02 -5.275015532970428467e-02
5.683479830622673035e-03 3.292280435562133789e-02 -1.190832164138555527e-02
2.202427014708518982e-02 3.613510727882385254e-02 -3.557435423135757446e-02
4.826698452234268188e-02 3.042121417820453644e-02 -1.666846126317977905e-02
4.786697030067443848e-02 3.129273653030395508e-02 2.277153916656970978e-02
-1.702445186674594879e-02 4.234660416841506958e-02 -3.198484331369400024e-02
-1.436379086226224899e-02 3.872560709714889526e-02 -1.920516975224018097e-02
5.758031457662582397e-02 3.048999421298503876e-02 -2.485421858727931976e-02
1.054772548377513885e-02 3.551122546195983887e-02 1.015640795230865479e-02
5.387172102928161621e-02 2.570278011262416840e-02 -7.115663960576057434e-03
2.537792548537254333e-02 3.139856830239295959e-02 -7.472968660295009613e-03
-6.284619681537151337e-03 5.990815162658691406e-02 -4.143153503537178040e-02
-5.460279062390327454e-03 3.993299975991249084e-02 -3.691487759351730347e-02
5.424631386995315552e-02 2.755084261298179626e-02 -5.378396064043045044e-02
1.236069202423095703e-02 3.634513914585113525e-02 -3.724178671836853027e-02
4.820169508457183838e-02 3.085111826658248901e-02 -2.291445992887020111e-02
3.912724927067756653e-02 3.458316624164581299e-02 2.217906154692173004e-02
1.970373466610908508e-02 3.373995795845985413e-02 -3.842830657958984375e-02
4.267910867929458618e-02 4.329328238964080811e-02 -4.284694790840148926e-02
-9.299693629145622253e-03 4.697384312748908997e-02 -4.180845618247985840e-02
3.876570239663124084e-02 3.116237930953502655e-02 -2.123274281620979309e-02
2.515021711587905884e-02 3.713567927479743958e-02 -3.741167858242988586e-02
6.056652963161468506e-02 2.453258633613586426e-02 3.821793943643569946e-04
2.162531018257141113e-03 3.701391071081161499e-02 -2.162699960172176361e-02
-5.446172319352626801e-03 3.955201059579849243e-02 -2.410452067852020264e-02
5.293250828981399536e-02 2.345687896013259888e-02 -2.065834403038024902e-02
7.033824920654296875e-02 2.857109159231185913e-02 -3.146766126155853271e-02
4.505968093872070312e-02 2.969282120466232300e-02 2.350314147770404816e-02
5.782102793455123901e-02 2.536974102258682251e-02 -5.270369350910186768e-02
1.223040744662284851e-03 8.179163932800292969e-02 -3.906295448541641235e-02
-1.220826432108879089e-02 3.560977801680564880e-02 -3.496059775352478027e-02
2.753933891654014587e-02 4.099333286285400391e-02 1.686794497072696686e-02
3.539818525314331055e-02 2.772895991802215576e-02 -3.832327574491500854e-02
3.159218654036521912e-02 5.569391325116157532e-02 -4.788164049386978149e-02
9.958550333976745605e-03 3.591267392039299011e-02 -1.790961623191833496e-02
5.547681450843811035e-02 2.861420437693595886e-02 -3.987049311399459839e-02
-1.682452857494354248e-02 3.683882951736450195e-02 -1.356224808841943741e-02
2.286536246538162231e-02 3.177120909094810486e-02 1.809997484087944031e-03
-1.112738158553838730e-02 4.270958900451660156e-02 -3.208206221461296082e-02
3.082547336816787720e-02 3.465937077999114990e-02 2.555339969694614410e-02
-9.436462074518203735e-03 5.141093954443931580e-02 -2.131465636193752289e-02
4.150108247995376587e-02 2.920180931687355042e-02 1.434894837439060211e-02
8.613342419266700745e-03 3.310213238000869751e-02 -3.555373847484588623e-02
3.388321399688720703e-02 3.193646296858787537e-02 -2.680723182857036591e-02
2.331587672233581543e-02 3.134103119373321533e-02 2.724055200815200806e-03
-1.309462729841470718e-02 4.015959799289703369e-02 1.207066699862480164e-03
3.780606389045715332e-02 3.320763632655143738e-02 -3.698483109474182129e-02
2.958518639206886292e-02 6.920620799064636230e-02 -4.856751859188079834e-02
5.950480699539184570e-02 3.323423862457275391e-02 -4.245702922344207764e-02
-9.957826696336269379e-03 4.434468597173690796e-02 -1.419044472277164459e-02
5.060736089944839478e-02 2.881130948662757874e-02 1.894387789070606232e-02
1.546907797455787659e-02 3.409620374441146851e-02 -4.049532115459442139e-02
2.949759364128112793e-03 3.786256164312362671e-02 1.980333961546421051e-02
5.170990526676177979e-02 3.108097426593303680e-02 2.255426533520221710e-02
3.907954320311546326e-03 3.433912247419357300e-02 -3.128033131361007690e-02
3.557053580880165100e-02 3.337192907929420471e-02 -4.358948767185211182e-02
-4.848033189773559570e-03 3.802972659468650818e-02 -3.387080505490303040e-02
3.438310697674751282e-02 4.663414880633354187e-02 -4.570507258176803589e-02
7.647192105650901794e-03 3.231435641646385193e-02 -9.436184540390968323e-03
2.398739010095596313e-02 3.269839659333229065e-02 -1.608402468264102936e-02
5.008035153150558472e-02 4.723490402102470398e-02 -4.384855553507804871e-02
-6.775649264454841614e-03 3.367125615477561951e-02 -3.795809671282768250e-02
4.100857675075531006e-02 4.168984666466712952e-02 -5.127844959497451782e-02
-1.415069773793220520e-02 4.235919564962387085e-02 1.491039432585239410e-02
5.711410194635391235e-02 2.854875847697257996e-02 2.285635657608509064e-02
-3.263313323259353638e-03 3.705467283725738525e-02 -1.380807720124721527e-02
-3.257278352975845337e-03 4.208759590983390808e-02 1.967588998377323151e-02
-2.264772728085517883e-02 3.755002841353416443e-02 -3.084374964237213135e-02
3.889371082186698914e-02 2.837629616260528564e-02 1.653708331286907196e-02
3.630690649151802063e-02 5.067652836441993713e-02 -4.616567492485046387e-02
-1.964529231190681458e-02 3.705764934420585632e-02 1.764068193733692169e-02
5.601824074983596802e-02 2.325887233018875122e-02 -4.410251230001449585e-02
2.824342623353004456e-02 3.301723673939704895e-02 -2.163035795092582703e-02
-3.854650072753429413e-03 4.201383143663406372e-02 -4.207768291234970093e-02
-1.338488049805164337e-02 3.575038164854049683e-02 -1.856365613639354706e-02
7.492449134588241577e-03 8.382866531610488892e-02 -4.043765366077423096e-02
3.228806704282760620e-02 3.502210602164268494e-02 -4.758251830935478210e-02
4.145223647356033325e-03 3.950304538011550903e-02 -4.134165495634078979e-02
-1.506410725414752960e-02 3.766327351331710815e-02 -3.387916088104248047e-02
4.323320463299751282e-03 4.148627072572708130e-02 -2.693832665681838989e-02
1.758706569671630859e-02 6.679772585630416870e-02 -4.487653821706771851e-02
-1.327216625213623047e-03 4.020087420940399170e-02 -2.439015731215476990e-02
5.685357749462127686e-02 2.789576910436153412e-02 -4.480180889368057251e-02
1.349001005291938782e-02 3.947156667709350586e-02 -3.358912467956542969e-02
8.925955742597579956e-03 3.412091359496116638e-02 -4.221094399690628052e-02
2.747358754277229309e-02 7.581175863742828369e-02 -4.244799911975860596e-02
3.609506040811538696e-02 3.107247315347194672e-02 -3.540612012147903442e-02
3.466512262821197510e-02 2.939634770154953003e-02 1.868102140724658966e-02
1.158316619694232941e-02 7.922212034463882446e-02 -3.575318679213523865e-02
8.300909772515296936e-03 3.882765769958496094e-02 -4.175500944256782532e-02
2.588028833270072937e-02 3.159036859869956970e-02 -4.128077626228332520e-02
2.172049134969711304e-04 6.228498369455337524e-02 -4.175964742898941040e-02
-7.246556691825389862e-03 3.028937429189682007e-02 -2.899612486362457275e-02
3.584756329655647278e-02 3.135537728667259216e-02 5.952008068561553955e-03
-1.410937868058681488e-02 7.007668912410736084e-02 -3.615286201238632202e-02
-3.766865469515323639e-03 3.341619297862052917e-02 2.098733372986316681e-02
-1.400408893823623657e-02 3.769048303365707397e-02 -2.173127233982086182e-02
2.745765447616577148e-02 3.382149338722229004e-02 -4.572823643684387207e-02
3.507808223366737366e-02 3.339566662907600403e-02 1.970378123223781586e-02
4.938900470733642578e-02 3.125758841633796692e-02 -2.092677168548107147e-02
3.097902983427047729e-02 3.339506685733795166e-02 -4.443066567182540894e-02
-1.026331447064876556e-02 3.268555179238319397e-02 -3.827855736017227173e-02
4.163697361946105957e-03 3.302919119596481323e-02 -3.996349871158599854e-03
-8.717337623238563538e-03 4.689301922917366028e-02 -4.120758920907974243e-02
-1.240787003189325333e-02 3.993109241127967834e-02 -8.662997744977474213e-03
4.550859332084655762e-03 3.359534218907356262e-02 -2.036276273429393768e-02
4.905228316783905029e-02 2.927595935761928558e-02 1.984855718910694122e-02
2.941266819834709167e-02 3.856819868087768555e-02 -2.912858314812183380e-02
2.190515398979187012e-03 3.340011462569236755e-02 1.950020901858806610e-02
4.643637686967849731e-02 3.708239644765853882e-02 1.316148042678833008e-02
-1.083565596491098404e-02 3.479063510894775391e-02 2.048785425722599030e-02
2.539076283574104309e-02 5.809103325009346008e-02 -4.684005305171012878e-02
-1.018445380032062531e-02 3.805683553218841553e-02 -3.629640489816665649e-02
-1.614190079271793365e-02 4.121000692248344421e-02 -8.248287253081798553e-03
-1.246159523725509644e-02 4.096054285764694214e-02 -4.182783514261245728e-02
-1.520353555679321289e-02 3.174897655844688416e-02 -3.065742552280426025e-02
-5.290855653584003448e-03 3.621017932891845703e-02 2.228871174156665802e-02
2.091498672962188721e-02 3.749835863709449768e-02 -1.759757474064826965e-02
6.798965856432914734e-03 8.150865137577056885e-02 -4.064946994185447693e-02
4.309583455324172974e-02 2.764993160963058472e-02 1.915887556970119476e-02
2.776660025119781494e-03 3.591069579124450684e-02 -4.213040322065353394e-02
4.661030322313308716e-02 2.694395370781421661e-02 -4.764233529567718506e-02
5.196137726306915283e-02 2.664446085691452026e-02 1.775521598756313324e-02
2.374285459518432617e-02 6.605440378189086914e-02 -4.411331564188003540e-02
1.845027133822441101e-02 8.221902698278427124e-02 -3.925892338156700134e-02
6.901162117719650269e-02 3.028481826186180115e-02 -4.056238383054733276e-02
3.792604431509971619e-03 3.580788522958755493e-02 -1.575416699051856995e-02
-6.543367169797420502e-03 7.434689998626708984e-02 -3.716214746236801147e-02
-8.779805153608322144e-03 3.992490842938423157e-02 -3.242703527212142944e-02
-1.256309077143669128e-02 3.809413313865661621e-02 9.728010743856430054e-03
-1.386510767042636871e-02 4.002946615219116211e-02 -7.087610661983489990e-03
-4.443394951522350311e-03 3.360807523131370544e-02 -1.334028504788875580e-02
-1.300565246492624283e-02 4.312036186456680298e-02 -2.995082736015319824e-02
4.901456832885742188e-02 3.272758796811103821e-02 -2.991372719407081604e-02
-1.488328818231821060e-02 4.679943248629570007e-02 -3.266766667366027832e-02
5.654240027070045471e-03 4.037429019808769226e-02 -3.393648564815521240e-02
5.501895397901535034e-02 2.919099852442741394e-02 -2.846051007509231567e-02
4.349862784147262573e-02 3.252227231860160828e-02 -8.689346723258495331e-03
-1.593787409365177155e-02 4.544345289468765259e-02 -3.857764601707458496e-02
7.316287606954574585e-03 6.660517305135726929e-02 -4.329705983400344849e-02
-1.064089126884937286e-02 4.469660297036170959e-02 -3.160628303885459900e-02
6.211871653795242310e-02 3.219271451234817505e-02 -3.253475576639175415e-02
-1.602065935730934143e-02 3.522181138396263123e-02 7.989842444658279419e-03
-1.568298228085041046e-02 3.971340134739875793e-02 -4.966760054230690002e-03
-6.533990614116191864e-03 7.011295855045318604e-02 -3.890369087457656860e-02
2.299633249640464783e-02 3.446870669722557068e-02 1.474515162408351898e-02
5.981889367103576660e-02 3.094810619950294495e-02 1.021992042660713196e-02
2.839674055576324463e-02 3.363818675279617310e-02 -4.390789568424224854e-02
3.090417012572288513e-02 3.604162111878395081e-02 -4.588846117258071899e-02
5.083041638135910034e-02 2.626317180693149567e-02 -2.710579708218574524e-02
4.763696342706680298e-02 3.033331222832202911e-02 -2.509332820773124695e-02
4.831001907587051392e-02 3.051463700830936432e-02 -5.540202558040618896e-02
-1.552762184292078018e-02 4.035416245460510254e-02 -2.767163515090942383e-02
-6.904092617332935333e-03 7.006121426820755005e-02 -4.382729530334472656e-02
-1.225379481911659241e-02 3.790841996669769287e-02 -2.989555709064006805e-02
-2.479866147041320801e-03 3.561747819185256958e-02 8.051488548517227173e-03
2.286389470100402832e-03 4.062638431787490845e-02 -1.214153319597244263e-02
-5.686583928763866425e-03 7.016227394342422485e-02 -4.076920449733734131e-02
1.793059706687927246e-02 3.609509393572807312e-02 7.221514359116554260e-03
2.272171899676322937e-02 3.492526337504386902e-02 2.131461165845394135e-02
6.123822182416915894e-02 2.787261642515659332e-02 1.429299451410770416e-02
5.203792452812194824e-02 2.910309471189975739e-02 -4.662303254008293152e-02
1.335553452372550964e-02 3.901060670614242554e-02 3.081345930695533752e-03
-1.194344460964202881e-02 3.956547006964683533e-02 3.526149317622184753e-03
-9.001763537526130676e-03 4.236498475074768066e-02 -3.723362460732460022e-02
5.932672321796417236e-02 3.323020786046981812e-02 -3.049337863922119141e-02
-1.011293660849332809e-02 3.899084404110908508e-02 -3.474724479019641876e-03
6.207432597875595093e-02 3.181832656264305115e-02 5.103824660181999207e-03
-1.977351307868957520e-02 4.423056170344352722e-02 9.614024311304092407e-03
3.436767309904098511e-02 3.896119073033332825e-02 2.178106643259525299e-02
-7.526451721787452698e-03 4.610871896147727966e-02 1.119085028767585754e-02
3.635754808783531189e-03 2.656325884163379669e-02 -1.452829688787460327e-03
4.156701639294624329e-02 2.906829491257667542e-02 -1.869856379926204681e-03
3.210337087512016296e-02 4.208439216017723083e-02 9.896747767925262451e-03
5.101778358221054077e-02 2.632576413452625275e-02 -1.422092318534851074e-02
4.051434621214866638e-02 3.581703454256057739e-02 -1.282981503754854202e-02
5.338131636381149292e-02 3.685316815972328186e-02 1.582447998225688934e-02
4.680941253900527954e-02 2.379074320197105408e-02 -6.742472760379314423e-03
1.312942430377006531e-02 4.062030464410781860e-02 -5.842726677656173706e-03
3.402463719248771667e-02 3.752617910504341125e-02 -1.297684758901596069e-02
-1.420048717409372330e-02 3.971460461616516113e-02 -2.850072830915451050e-02
3.999727219343185425e-02 3.362369909882545471e-02 -4.175279289484024048e-02
4.563005268573760986e-02 3.929337486624717712e-02 1.008278131484985352e-02
3.696339204907417297e-02 3.924404457211494446e-02 -1.963460631668567657e-02
4.607749730348587036e-02 2.573893964290618896e-02 -1.411036774516105652e-02
1.017078757286071777e-02 4.104280099272727966e-02 -9.933887980878353119e-03
-4.991513676941394806e-03 4.437228664755821228e-02 -3.947424702346324921e-03
3.864231705665588379e-02 2.945453487336635590e-02 -2.973602153360843658e-03
2.126183360815048218e-02 3.998954221606254578e-02 -1.217206567525863647e-02
-1.697154901921749115e-02 3.905274718999862671e-02 -2.903555147349834442e-02
-1.140321232378482819e-02 3.837780281901359558e-02 -1.315703615546226501e-03
7.091549038887023926e-02 3.298344463109970093e-02 -2.266218140721321106e-02
2.721543982625007629e-02 3.310318663716316223e-02 -1.637045852839946747e-02
-7.911476306617259979e-03 4.293381422758102417e-02 -5.565207451581954956e-03
2.821355685591697693e-02 4.338845610618591309e-02 2.061078511178493500e-02
2.293181791901588440e-02 4.768219962716102600e-02 -4.291662573814392090e-02
4.105775803327560425e-02 4.110686108469963074e-02 -1.348893716931343079e-02
-9.272138588130474091e-03 4.791834577918052673e-02 7.871365174651145935e-03
5.805463343858718872e-02 3.578584641218185425e-02 -1.272391155362129211e-02
-2.397145330905914307e-02 3.415926918387413025e-02 -2.586903981864452362e-03
3.522394597530364990e-02 3.516539931297302246e-02 -3.586870804429054260e-02
5.811200290918350220e-02 3.526134788990020752e-02 8.663753047585487366e-03
-1.137063931673765182e-02 3.652563691139221191e-02 -1.591180264949798584e-02
8.924342691898345947e-04 5.441215634346008301e-02 -3.808138146996498108e-02
5.813404917716979980e-02 3.867022320628166199e-02 8.531879633665084839e-03
-1.012105401605367661e-02 4.541804268956184387e-02 -1.128274109214544296e-02
2.769504860043525696e-02 3.594087809324264526e-02 -9.123366326093673706e-03
5.224455147981643677e-03 4.111432656645774841e-02 -2.424283325672149658e-02
5.700069665908813477e-02 3.136026859283447266e-02 -1.662305928766727448e-02
1.652147620916366577e-02 3.193784505128860474e-02 -1.969058066606521606e-03
5.100896582007408142e-03 4.599496349692344666e-02 6.527403369545936584e-03
1.979919150471687317e-02 5.355540290474891663e-02 -4.187092557549476624e-02
4.840869456529617310e-02 3.306270763278007507e-02 -1.341205090284347534e-02
4.162789136171340942e-02 3.172284737229347229e-02 -2.806501463055610657e-02
1.246371865272521973e-02 4.331691935658454895e-02 8.691679686307907104e-03
4.623717069625854492e-02 3.007445670664310455e-02 -1.167706027626991272e-02
5.765830725431442261e-02 3.381830453872680664e-02 -1.242290250957012177e-02
5.090800672769546509e-02 2.305524609982967377e-02 -4.212265461683273315e-02
1.754678413271903992e-02 3.291352838277816772e-02 -6.433770991861820221e-03
-6.404593586921691895e-03 8.340975642204284668e-02 -3.572102636098861694e-02
5.917314440011978149e-02 2.992830239236354828e-02 -9.734987281262874603e-03
3.739811480045318604e-03 3.557846322655677795e-02 -1.483014039695262909e-02
4.186408221721649170e-02 3.631080687046051025e-02 -9.613275527954101562e-03
3.223866969347000122e-02 3.431492671370506287e-02 -7.347667589783668518e-03
2.143778651952743530e-02 3.369130939245223999e-02 -7.819651626050472260e-03
4.909256100654602051e-02 3.933205455541610718e-02 1.916559599339962006e-02
1.396574079990386963e-02 4.587999358773231506e-02 -4.166818410158157349e-02
-1.055274996906518936e-02 3.630166873335838318e-02 -2.184064127504825592e-02
-3.286132588982582092e-03 6.240834668278694153e-02 -3.738340735435485840e-02
4.624495655298233032e-02 3.196359053254127502e-02 -2.622417733073234558e-02
-1.030479930341243744e-02 3.871652856469154358e-02 -1.545881293714046478e-02
4.426595568656921387e-02 3.390705585479736328e-02 -2.766013145446777344e-02
3.258610144257545471e-02 3.509738296270370483e-02 -1.761044003069400787e-02
5.689819902181625366e-02 3.050133027136325836e-02 -2.664144150912761688e-03
4.806140810251235962e-02 3.359623625874519348e-02 -3.150543570518493652e-02
-8.670940063893795013e-03 3.818897530436515808e-02 -8.218461647629737854e-03
4.676964879035949707e-02 3.442371636629104614e-02 -8.893361315131187439e-03
2.041488885879516602e-03 3.449242189526557922e-02 -1.281431876122951508e-02
2.868061885237693787e-02 5.520015954971313477e-02 -4.361183941364288330e-02
2.772938832640647888e-02 3.401621058583259583e-02 -4.584342241287231445e-04
-1.622110232710838318e-02 7.176551222801208496e-02 -3.540943935513496399e-02
6.335672736167907715e-02 2.902635931968688965e-02 2.597173675894737244e-03
5.208209902048110962e-02 3.245768323540687561e-02 -1.524610258638858795e-02
3.898727148771286011e-02 3.420689329504966736e-02 -2.476458065211772919e-02
4.070024937391281128e-02 2.328280359506607056e-02 -5.180605687201023102e-03
-1.177849620580673218e-02 7.837586104869842529e-02 -3.663814812898635864e-02
3.246847167611122131e-02 4.028829559683799744e-02 -1.978373527526855469e-02
6.133000552654266357e-02 3.041872754693031311e-02 -1.227132230997085571e-02
-1.239503547549247742e-02 3.211193159222602844e-02 -4.781764000654220581e-03
-1.013466808944940567e-02 4.278304055333137512e-02 6.432197988033294678e-03
2.231663465499877930e-02 7.730434834957122803e-02 -4.251460358500480652e-02
2.478736639022827148e-02 7.404693961143493652e-02 -4.359817504882812500e-02
5.541945248842239380e-02 4.085312783718109131e-02 -2.141825109720230103e-02
5.447340756654739380e-02 2.784028649330139160e-02 -1.881762780249118805e-02
-1.535969600081443787e-02 3.544600680470466614e-02 -1.298894174396991730e-02
5.581288039684295654e-02 3.609550744295120239e-02 1.529734022915363312e-02
4.600966721773147583e-02 3.538338094949722290e-02 -2.080333232879638672e-02
5.841755121946334839e-02 2.787402831017971039e-02 -1.473962422460317612e-02
1.934454962611198425e-02 3.477622568607330322e-02 -1.495464332401752472e-02
5.743002146482467651e-02 3.414796665310859680e-02 1.974779181182384491e-02
-1.277610845863819122e-02 4.278940334916114807e-02 -2.140245214104652405e-02
-1.233504526317119598e-02 7.500229030847549438e-02 -3.363646566867828369e-02
3.677479550242424011e-02 3.461033105850219727e-02 -2.381869778037071228e-02
5.977395176887512207e-02 3.236832842230796814e-02 -1.880881190299987793e-02
1.618968695402145386e-02 4.187000170350074768e-02 -1.119594648480415344e-02
2.386964857578277588e-02 6.007146090269088745e-02 -4.262269288301467896e-02
-2.825370058417320251e-03 5.055997520685195923e-02 -3.702551126480102539e-02
4.641823470592498779e-04 4.628973826766014099e-02 7.033109664916992188e-03
-2.054561115801334381e-02 4.484896734356880188e-02 1.508845575153827667e-02
-1.751801930367946625e-02 4.171537980437278748e-02 -2.979706972837448120e-02
-8.044463582336902618e-03 3.940243646502494812e-02 -1.079137250781059265e-02
1.041893288493156433e-02 5.079044774174690247e-02 -4.161003232002258301e-02
1.062464900314807892e-02 3.718284144997596741e-02 -2.151552587747573853e-02
3.853173926472663879e-02 3.715504705905914307e-02 1.636049710214138031e-02
3.272463753819465637e-02 3.701543062925338745e-02 -1.450471952557563782e-02
5.213541537523269653e-02 3.217336535453796387e-02 -1.881601102650165558e-02
-5.509619601070880890e-03 3.653357550501823425e-02 2.341158688068389893e-04
2.068474143743515015e-02 4.064676165580749512e-02 -1.177398115396499634e-02
1.857475563883781433e-02 3.486250340938568115e-02 -1.216366887092590332e-02
4.897893220186233521e-02 3.871444612741470337e-02 1.460728608071804047e-02
6.159403920173645020e-02 3.033479675650596619e-02 -1.663065887987613678e-02
3.455092385411262512e-02 2.828304655849933624e-02 -5.516627803444862366e-03
4.739147424697875977e-02 3.079850785434246063e-02 -2.650586701929569244e-02
-7.904236204922199249e-03 3.526111319661140442e-02 -1.518446579575538635e-02
2.466459944844245911e-02 3.866168111562728882e-02 -1.656481996178627014e-02
3.205880522727966309e-02 3.111840039491653442e-02 -2.331436797976493835e-02
5.455598235130310059e-02 3.183471411466598511e-02 -1.036376226693391800e-02
-1.412071753293275833e-02 3.754340112209320068e-02 -1.261710189282894135e-02
1.314101740717887878e-02 4.268627241253852844e-02 6.605582311749458313e-03
3.624914586544036865e-02 3.776188939809799194e-02 -1.341937668621540070e-02
3.006957098841667175e-02 4.846408963203430176e-02 -4.633399099111557007e-02
5.186324566602706909e-02 3.460837900638580322e-02 -7.195468060672283173e-03
5.106288939714431763e-03 3.748429194092750549e-02 -3.761756420135498047e-02
4.209247231483459473e-02 3.364652395248413086e-02 -2.988292276859283447e-02
-1.584896631538867950e-02 3.625090792775154114e-02 -2.676546573638916016e-04
2.538458257913589478e-02 3.506278991699218750e-02 -7.921995595097541809e-03
5.527711659669876099e-02 2.768137678503990173e-02 -8.439804427325725555e-03
-2.070755884051322937e-02 3.926481679081916809e-02 -1.336409803479909897e-02
9.389242157340049744e-03 3.996044024825096130e-02 -8.727364242076873779e-03
2.744616195559501648e-02 3.957114741206169128e-02 1.438280381262302399e-02
3.461845591664314270e-02 3.138508647680282593e-02 -7.717282511293888092e-03
9.853592142462730408e-03 4.107511788606643677e-02 -2.835296466946601868e-02
1.311560347676277161e-02 4.262766242027282715e-02 -2.014956809580326080e-02
5.498941987752914429e-02 3.797703608870506287e-02 7.562028244137763977e-03
2.270625904202461243e-02 4.219330102205276489e-02 1.054522022604942322e-02
-1.137390360236167908e-02 4.194643720984458923e-02 -1.883352734148502350e-02
-1.464019156992435455e-02 4.021413996815681458e-02 -2.658800408244132996e-02
-1.121103484183549881e-02 4.759110510349273682e-02 5.556490272283554077e-03
8.181113749742507935e-03 5.380518361926078796e-02 -4.022873938083648682e-02
3.565031662583351135e-02 3.493575006723403931e-02 1.671096310019493103e-03
6.212682276964187622e-02 3.804118931293487549e-02 -2.064629830420017242e-02
2.566261962056159973e-02 2.899202145636081696e-02 -5.969560705125331879e-03
-1.730654574930667877e-02 4.201010987162590027e-02 1.490300707519054413e-02
1.462631300091743469e-02 5.831610038876533508e-02 -4.087652266025543213e-02
-1.190290227532386780e-02 3.460141271352767944e-02 -1.314542256295681000e-02
2.583236992359161377e-02 6.552051752805709839e-02 -4.368241876363754272e-02
6.114663928747177124e-02 3.213116899132728577e-02 9.129438549280166626e-03
2.546181529760360718e-02 3.343643248081207275e-02 -2.777576446533203125e-05
-1.798593066632747650e-02 3.623749315738677979e-02 -2.959092147648334503e-03
2.041490375995635986e-02 3.388209640979766846e-02 -1.506329793483018875e-02
4.505541920661926270e-02 2.532378584146499634e-02 -3.629093989729881287e-03
1.917476207017898560e-02 4.569898545742034912e-02 -4.275222867727279663e-02
1.353609934449195862e-02 7.164350897073745728e-02 -4.012943059206008911e-02
6.221362948417663574e-02 3.093201853334903717e-02 5.806209519505500793e-03
1.779731363058090210e-03 3.534037619829177856e-02 -1.150569505989551544e-02
-2.321623824536800385e-02 3.876258060336112976e-02 2.052591554820537567e-02
1.733800023794174194e-02 2.711023576557636261e-02 -4.936551675200462341e-03
2.236455306410789490e-02 5.251570045948028564e-02 -4.372661560773849487e-02
-1.544256694614887238e-02 4.060495272278785706e-02 -7.226101122796535492e-03
-3.045318648219108582e-03 3.844013810157775879e-02 -2.878144010901451111e-02
5.655751377344131470e-02 2.901918254792690277e-02 -4.047040641307830811e-02
-2.092157304286956787e-02 3.882094845175743103e-02 1.844177953898906708e-02
2.554723992943763733e-02 4.157683998346328735e-02 -1.831977814435958862e-02
6.146011874079704285e-03 4.403274878859519958e-02 -3.847958147525787354e-02
2.664989978075027466e-02 4.239049553871154785e-02 -2.637637592852115631e-02
1.355047896504402161e-02 4.190307855606079102e-02 8.483644574880599976e-03
3.439938277006149292e-02 4.141850024461746216e-02 -2.431381121277809143e-02
5.993826314806938171e-03 4.468920081853866577e-02 -3.909448161721229553e-02
-1.679989136755466461e-02 6.653150171041488647e-02 -3.435917198657989502e-02
-7.082266733050346375e-03 3.651287779211997986e-02 -2.073402330279350281e-02
2.586658298969268799e-02 4.162582010030746460e-02 -1.955500431358814240e-02
6.006214022636413574e-02 3.135717660188674927e-02 6.633596494793891907e-03
4.812452942132949829e-02 3.141248226165771484e-02 -3.953205421566963196e-02
2.816945686936378479e-02 4.073485732078552246e-02 7.181819528341293335e-03
3.153540566563606262e-02 3.957680240273475647e-02 1.027795486152172089e-02
2.752767130732536316e-02 3.049365803599357605e-02 -6.134849973022937775e-03
2.584085240960121155e-02 5.390414595603942871e-02 -4.271567612886428833e-02
5.915053188800811768e-02 2.886104024946689606e-02 -3.549734503030776978e-02
5.427147448062896729e-02 3.470598161220550537e-02 -1.225312612950801849e-02
-1.702161878347396851e-02 3.562811017036437988e-02 -6.921771913766860962e-03
-1.680598966777324677e-02 4.022926464676856995e-02 -1.609774306416511536e-02
1.949341967701911926e-02 3.462209179997444153e-02 -2.688958123326301575e-02
-9.648505598306655884e-03 3.795372322201728821e-02 -3.366477787494659424e-02
4.934768378734588623e-02 3.250786662101745605e-02 -8.331034332513809204e-03
5.065475404262542725e-02 3.212302178144454956e-02 -4.545540362596511841e-02
-1.071659848093986511e-03 3.705221042037010193e-02 -1.171596348285675049e-02
4.624415934085845947e-02 3.460750356316566467e-02 1.898907683789730072e-02
-2.159491367638111115e-02 4.251185432076454163e-02 -2.706188336014747620e-02
5.288657546043395996e-02 3.412888199090957642e-02 9.905736893415451050e-03
3.112132102251052856e-02 3.516397997736930847e-02 -3.435133770108222961e-02
-1.191976573318243027e-02 3.900529816746711731e-02 -1.356521993875503540e-02
-1.198110543191432953e-02 3.946016356348991394e-02 1.093856990337371826e-03
1.881699636578559875e-02 6.156701594591140747e-02 -4.401880130171775818e-02
3.556372597813606262e-03 4.057563096284866333e-02 -7.861389778554439545e-03
4.517314583063125610e-02 3.183853626251220703e-02 -3.040177188813686371e-02
3.133646398782730103e-02 3.613749518990516663e-02 1.522686518728733063e-02
3.924528881907463074e-02 3.832615911960601807e-02 6.058549508452415466e-03
2.146284654736518860e-02 7.157325744628906250e-02 -4.178128764033317566e-02
2.956581115722656250e-02 3.461714088916778564e-02 -2.443516254425048828e-02
5.221191793680191040e-03 3.699691593647003174e-02 -2.304598689079284668e-02
-1.905363611876964569e-02 4.400182887911796570e-02 4.318196326494216919e-03
3.104439005255699158e-03 4.124284163117408752e-02 -3.705872222781181335e-02
3.040521591901779175e-02 3.200335800647735596e-02 -4.775099456310272217e-03
1.838089153170585632e-02 6.400561332702636719e-02 -4.232066869735717773e-02
5.961462110280990601e-02 2.669378928840160370e-02 -3.675521351397037506e-03
3.907492384314537048e-03 3.752980381250381470e-02 -2.430347912013530731e-02
4.147026315331459045e-02 4.986499249935150146e-02 -4.710746556520462036e-02
2.496200799942016602e-02 3.418035060167312622e-02 1.955693587660789490e-03
3.108166530728340149e-02 6.569173932075500488e-02 -4.497819393873214722e-02
2.379862591624259949e-02 4.005617648363113403e-02 -1.299798674881458282e-02
-1.817328855395317078e-02 4.131122305989265442e-02 -2.449895627796649933e-02
5.119408667087554932e-02 3.142731264233589172e-02 -2.754058316349983215e-02
6.301047652959823608e-02 2.956075780093669891e-02 -2.436981163918972015e-02
2.986576035618782043e-02 3.428981080651283264e-02 1.484352909028530121e-02
2.322161570191383362e-03 3.459063172340393066e-02 -3.516114130616188049e-02
1.244290918111801147e-02 3.944101929664611816e-02 -2.790268510580062866e-02
1.361386477947235107e-02 4.117339104413986206e-02 -2.339443564414978027e-02
-2.188204601407051086e-02 4.406353831291198730e-02 -3.417832031846046448e-02
2.261797338724136353e-02 7.484980672597885132e-02 -4.302053526043891907e-02
5.091479420661926270e-02 3.175647184252738953e-02 -2.874923497438430786e-02
6.337539851665496826e-02 3.263178095221519470e-02 1.449174247682094574e-02
4.703073203563690186e-02 3.314109146595001221e-02 -2.916526049375534058e-02
1.201131194829940796e-02 4.339744150638580322e-02 -4.049488902091979980e-02
5.163870006799697876e-02 2.251729369163513184e-02 -6.315341219305992126e-03
5.780950188636779785e-02 2.960665337741374969e-02 -3.928753733634948730e-02
4.650755226612091064e-02 3.299194201827049255e-02 -1.373110339045524597e-03
4.354009032249450684e-02 3.171511366963386536e-02 -1.592791639268398285e-03
4.201338812708854675e-02 3.466690331697463989e-02 -4.374612122774124146e-02
-1.877009868621826172e-03 3.362920135259628296e-02 -3.854291513562202454e-03
3.451685607433319092e-02 2.072922326624393463e-02 -6.285887211561203003e-03
1.290882378816604614e-02 4.167332500219345093e-02 -4.140283912420272827e-02
2.694399282336235046e-02 3.861510753631591797e-02 -1.253354921936988831e-02
6.121565401554107666e-02 2.552825026214122772e-02 -9.510139003396034241e-03
3.026198968291282654e-02 5.003321170806884766e-02 -4.619781672954559326e-02
2.236236631870269775e-02 4.804362356662750244e-02 -4.423819482326507568e-02
1.172524131834506989e-02 6.074159964919090271e-02 -3.880673646926879883e-02
6.132843345403671265e-02 2.697000466287136078e-02 -3.612342290580272675e-03
7.019940763711929321e-03 3.949204832315444946e-02 7.037077099084854126e-03
1.762343570590019226e-02 3.113856352865695953e-02 -4.816015250980854034e-03
-2.838883548974990845e-03 4.467727988958358765e-02 -1.015064027160406113e-02
4.616305232048034668e-02 2.896225266158580780e-02 -3.637449815869331360e-02
1.941868290305137634e-02 3.594881668686866760e-02 5.688166245818138123e-03
2.302397787570953369e-02 4.024494439363479614e-02 -2.035626769065856934e-02
5.702861398458480835e-02 3.017217852175235748e-02 -8.042677305638790131e-03
3.892528265714645386e-02 4.289706423878669739e-02 -1.832669042050838470e-02
2.165510877966880798e-02 3.965052217245101929e-02 -2.931095845997333527e-02
-2.251842617988586426e-02 4.008641839027404785e-02 -2.921038866043090820e-02
5.487799644470214844e-02 3.574015200138092041e-02 -2.017440833151340485e-02
2.589669451117515564e-02 7.456337660551071167e-02 -4.325879737734794617e-02
-1.884242519736289978e-03 7.949004322290420532e-02 -3.519955277442932129e-02
-1.815854944288730621e-02 6.462451815605163574e-02 -3.439652919769287109e-02
1.802403107285499573e-02 4.427137970924377441e-02 -4.045450687408447266e-02
1.475394144654273987e-02 4.428746551275253296e-02 6.005438044667243958e-03
6.028949469327926636e-02 3.000465966761112213e-02 -2.412022091448307037e-02
6.139657646417617798e-02 2.929548174142837524e-02 -3.649937361478805542e-02
2.639027312397956848e-03 5.639778822660446167e-02 -3.870543092489242554e-02
-1.214737817645072937e-02 7.192341983318328857e-02 -3.653006255626678467e-02
2.000824362039566040e-02 4.141087085008621216e-02 3.896161913871765137e-03
4.411431401968002319e-02 2.819772809743881226e-02 -3.570063412189483643e-02
