-0.28183753333333333 0.026414866666666665 -0.026849466666666665
-0.2815364666666667 0.0267692 -0.023454199999999998
-0.2811056 0.027276466666666666 -0.018595466666666668
-0.2807930666666667 0.027644333333333333 -0.015071133333333332
-0.2830397333333333 0.0249658 -0.04006793333333333
-0.28048613333333333 0.027786133333333334 -0.009414933333333332
-0.2802965333333333 0.027861466666666668 -0.005797399999999999
-0.28006926666666665 0.027951800000000002 -0.0014627333333333333
-0.28034286666666663 0.02695686666666667 0.002180066666666667
-0.27983593333333334 0.022361533333333336 0.0063526
-0.2797934 0.026603066666666668 -0.0350752
-0.27948166666666663 0.0269726 -0.031524533333333334
-0.27905406666666666 0.027479399999999998 -0.026655266666666667
-0.27875686666666666 0.02783146666666667 -0.023270333333333334
-0.2783928666666667 0.028194933333333335 -0.018445
-0.27821226666666665 0.028267 -0.014968133333333333
-0.2802102 0.026109066666666667 -0.039821800000000004
-0.27791920000000003 0.028383933333333333 -0.009327733333333334
-0.2777318 0.028458666666666667 -0.0057184
-0.2775071333333334 0.028548266666666666 -0.0013935333333333333
-0.27749593333333333 0.028204200000000002 0.002306466666666667
-0.2763156666666667 0.0251638 0.006609599999999999
-0.2770172 0.027666533333333333 -0.034857
-0.2767094 0.0280338 -0.031317066666666664
-0.27628733333333333 0.028537333333333335 -0.026462533333333333
-0.2760782 0.028692733333333335 -0.0231152
-0.27583226666666666 0.028791266666666666 -0.018337866666666664
-0.2756537333333334 0.028862866666666667 -0.0148688
-0.27829646666666663 0.025620399999999998 -0.0443736
-0.27742866666666666 0.027175533333333335 -0.03958913333333333
-0.2753640666666667 0.028978800000000002 -0.009241133333333333
-0.2751786666666666 0.02905306666666667 -0.0056398666666666675
-0.27495653333333336 0.029142066666666668 -0.0013247333333333334
-0.27476439999999996 0.029219066666666668 0.0024094
-0.27310280000000003 0.027307 0.006805
-0.2778787333333333 0.0157216 0.009801866666666666
-0.27425713333333335 0.028723733333333334 -0.0346404
-0.2739533333333333 0.029088666666666665 -0.031111133333333332
-0.2736956 0.0292192 -0.02632513333333333
-0.27352600000000005 0.029287266666666666 -0.022998
-0.2732828666666667 0.029384999999999998 -0.018231333333333332
-0.27310633333333334 0.029456 -0.014770066666666666
-0.27505786666666665 0.0277618 -0.04394206666666667
-0.2746632666666667 0.028235866666666668 -0.03935826666666666
-0.27282 0.029571200000000002 -0.009154933333333334
-0.2726368666666667 0.029644733333333333 -0.005561733333333333
-0.27241719999999997 0.029733066666666665 -0.0012561999999999999
-0.2722272 0.0298096 0.0024696
-0.27010586666666664 0.028990333333333333 0.006957466666666666
-0.27313466666666664 0.021439533333333333 0.010290933333333334
-0.27156939999999996 0.029643266666666668 -0.03444626666666666
-0.2713938666666667 0.029714200000000003 -0.0309716
-0.2711528 0.029811466666666668 -0.026201266666666667
-0.27098506666666666 0.029879199999999998 -0.02288146666666667
-0.2707448 0.0299762 -0.018125533333333332
-0.27057026666666667 0.0300466 -0.014671933333333333
-0.27230373333333335 0.028818600000000003 -0.043699133333333334
-0.2719142666666666 0.029289799999999998 -0.03912913333333334
-0.27028726666666664 0.030160866666666668 -0.009069333333333334
-0.2701060666666667 0.030234 -0.005484066666666666
-0.2699022 0.0302906 -0.0011914
-0.2697369333333333 0.030313133333333336 0.002521066666666667
-0.2673215333333333 0.030210400000000002 0.0070666
-0.2692724666666667 0.025168000000000003 0.010606466666666666
-0.2690332 0.030234266666666666 -0.03430486666666666
-0.2688596 0.030304733333333334 -0.030837933333333335
-0.2686213333333333 0.0304012 -0.0260782
-0.2684556 0.030468333333333333 -0.0227658
-0.2698768 0.029490533333333332 -0.047142
-0.26823793333333334 0.030517466666666666 -0.018026666666666667
-0.2680862666666667 0.030537933333333333 -0.014586733333333332
-0.26956600000000003 0.0298692 -0.04345806666666666
-0.2692648666666667 0.03014033333333333 -0.0389344
-0.26784006666666665 0.030571533333333335 -0.009005133333333333
-0.2676824666666667 0.030593 -0.0054326
-0.2674936 0.030618733333333332 -0.0011510666666666666
-0.26733013333333333 0.030641133333333334 0.0025547333333333336
-0.26487486666666665 0.030653800000000002 0.007103
-0.26650833333333335 0.02633526666666667 0.010698333333333334
-0.2665388 0.030748866666666666 -0.03417613333333334
-0.2663879333333333 0.03076946666666667 -0.030723999999999998
-0.2661806666666667 0.030797666666666668 -0.02598373333333333
-0.26603646666666664 0.0308172 -0.022684266666666668
-0.26715066666666665 0.0305374 -0.04689173333333333
-0.26583066666666666 0.0308432 -0.017956733333333332
-0.26568586666666666 0.030851066666666666 -0.014524533333333334
-0.2669591333333334 0.030639133333333336 -0.043266266666666664
-0.2667403333333333 0.0307214 -0.038785066666666666
-0.26545093333333336 0.030863466666666665 -0.008955266666666666
-0.2653004666666667 0.030871533333333333 -0.005390333333333333
-0.2651202 0.030881266666666667 -0.0011177333333333333
-0.2649642 0.030889466666666664 0.0025803999999999996
-0.26255473333333335 0.030811933333333333 0.0071128
-0.26398273333333333 0.02695833333333333 0.0107428
-0.2641922 0.030930666666666665 -0.034100733333333334
-0.2640481333333333 0.030938333333333335 -0.030655866666666667
-0.26385033333333335 0.03094886666666667 -0.025925399999999998
-0.2637126 0.0309562 -0.022632533333333333
-0.2647217333333333 0.0309024 -0.046764
-0.2635152 0.030966866666666665 -0.017914
-0.2633718666666667 0.0309744 -0.0144868
-0.2645710666666667 0.030910466666666667 -0.04316126666666666
-0.26438453333333334 0.030920466666666667 -0.03869966666666667
-0.26882560000000005 0.014776733333333332 0.014174666666666667
-0.26313933333333334 0.030986866666666668 -0.008925533333333334
-0.26299046666666664 0.0309948 -0.0053658
-0.262812 0.031004333333333335 -0.0010994
-0.2626576 0.03101253333333333 0.0025934666666666667
-0.2602416 0.030969399999999998 0.007122600000000001
-0.26146833333333336 0.0275784 0.010787133333333334
-0.26187653333333333 0.031054199999999997 -0.034035
-0.26173393333333334 0.031061799999999997 -0.030595133333333333
-0.2615381333333333 0.031072266666666667 -0.025871466666666666
-0.2614018 0.0310796 -0.022583333333333334
-0.26240073333333336 0.031026266666666667 -0.04667993333333333
-0.26120646666666664 0.03109 -0.017871599999999998
-0.26106453333333335 0.0310976 -0.014449333333333333
-0.26225160000000003 0.0310342 -0.043082466666666666
-0.2620668666666667 0.031044133333333335 -0.03862726666666667
-0.2650559333333333 0.018366666666666667 0.0144482
-0.2608344 0.0311098 -0.008896066666666667
-0.260687 0.031117866666666667 -0.0053414
-0.2605104 0.031127133333333334 -0.0010811333333333333
-0.26035753333333334 0.031135399999999997 0.0026064666666666667
-0.25793546666666667 0.031126466666666668 0.0071324
-0.2589652 0.02819573333333333 0.010831266666666667
-0.25956766666666664 0.0311774 -0.0339698
-0.2594264666666667 0.031185 -0.030534866666666667
-0.25923266666666667 0.031195333333333335 -0.02581793333333333
-0.25909773333333336 0.0312026 -0.022534533333333332
-0.26008653333333337 0.031149733333333332 -0.046596533333333336
-0.25890446666666667 0.0312128 -0.01782953333333333
-0.258764 0.031220333333333336 -0.014412133333333334
-0.25993886666666666 0.031157733333333333 -0.043004266666666666
-0.2597560666666667 0.031167466666666664 -0.03855546666666666
-0.26193753333333336 0.020426666666666666 0.0145988
-0.2585362 0.0312324 -0.008866800000000001
-0.25839033333333333 0.031240333333333332 -0.005317199999999999
-0.25821546666666667 0.03124966666666667 -0.0010629333333333332
-0.2580642 0.031257733333333336 0.0026194
-0.25563586666666666 0.03128326666666667 0.0071422000000000005
-0.25656666666666667 0.0285766 0.010854866666666666
-0.25726513333333334 0.03130033333333333 -0.03390506666666667
-0.2571254666666667 0.03130786666666666 -0.030475
-0.25693366666666667 0.031318066666666665 -0.025764799999999997
-0.25680006666666666 0.031325200000000004 -0.02248606666666667
-0.25777866666666666 0.031272933333333336 -0.04651386666666667
-0.25660873333333334 0.0313354 -0.017787733333333333
-0.25646979999999997 0.031342666666666665 -0.0143752
-0.2576326 0.031280666666666665 -0.04292673333333333
-0.2574516666666667 0.0312904 -0.03848426666666667
-0.25885213333333335 0.022453733333333333 0.014746933333333333
-0.25624426666666666 0.0313548 -0.008837666666666666
-0.25609993333333336 0.031362466666666665 -0.005293066666666666
-0.2559268666666667 0.031371866666666665 -0.0010448666666666667
-0.25577713333333335 0.03137973333333333 0.0026323333333333333
-0.253343 0.03143926666666667 0.007152
-0.25422079999999997 0.028845866666666668 0.010868866666666668
-0.2549691333333333 0.03142286666666667 -0.03384093333333334
-0.25483093333333334 0.031430266666666665 -0.03041573333333333
-0.25464106666666664 0.031440333333333334 -0.025712133333333335
-0.25450893333333335 0.03144746666666667 -0.022438
-0.25547733333333333 0.0313958 -0.04643186666666667
-0.25431946666666666 0.0314576 -0.017746266666666666
-0.254182 0.031464933333333334 -0.014338533333333332
-0.25533279999999997 0.03140346666666667 -0.0428498
-0.25515373333333335 0.031412999999999996 -0.038413666666666665
-0.25612913333333337 0.023620533333333336 0.014826
-0.2620494666666667 0.008366666666666666 0.0175272
-0.25395873333333335 0.031476866666666665 -0.008808733333333334
-0.25381593333333335 0.0314844 -0.005269133333333333
-0.2536446666666667 0.0314936 -0.0010268
-0.2534964 0.0315016 0.0026452
-0.2510568 0.031595 0.007161799999999999
-0.25188266666666664 0.029114333333333336 0.010882866666666666
-0.2526797333333333 0.03154506666666666 -0.03377726666666667
-0.25254293333333333 0.03155226666666667 -0.030356866666666666
-0.2523550666666667 0.031562466666666664 -0.025659866666666666
-0.2522242666666667 0.0315694 -0.022390266666666665
-0.2531827333333333 0.0315182 -0.04635053333333334
-0.25203686666666664 0.0315794 -0.017705133333333335
-0.25190073333333335 0.03158673333333333 -0.014302066666666667
-0.2530396 0.031525866666666666 -0.042773533333333336
-0.2528624 0.0315354 -0.038343600000000005
-0.25362206666666665 0.024275066666666668 0.014863999999999999
-0.25684253333333334 0.015732866666666668 0.0180574
-0.2516798666666667 0.03159853333333333 -0.008780000000000001
-0.2515384666666666 0.031606 -0.005245333333333334
-0.251369 0.031615 -0.0010089333333333334
-0.2512223333333333 0.03162273333333333 0.0026580666666666665
-0.24877713333333332 0.03175006666666667 0.0071716
-0.24955186666666668 0.029381733333333333 0.010896866666666666
-0.25039653333333334 0.03166686666666667 -0.03371413333333333
-0.25026113333333333 0.03167406666666667 -0.03029846666666667
-0.2500751333333333 0.0316842 -0.025608000000000002
-0.2499458 0.03169093333333333 -0.022343000000000002
-0.25089426666666664 0.03164033333333333 -0.046269866666666666
-0.24976033333333333 0.031700733333333335 -0.017664266666666664
-0.24962566666666666 0.031708066666666666 -0.014265933333333335
-0.2507526666666667 0.03164786666666666 -0.04269786666666667
-0.2505773333333333 0.0316572 -0.03827413333333333
-0.2511658 0.0248244 0.0148936
-0.2539090666666667 0.017430466666666665 0.0181648
-0.24940700000000002 0.03171973333333333 -0.008751466666666667
-0.24926713333333333 0.03172713333333334 -0.005221666666666667
-0.2490994 0.03173606666666667 -0.0009910666666666666
-0.24895426666666667 0.0317438 0.0026708
-0.24650380000000002 0.03190486666666667 0.007181466666666666
-0.24722846666666667 0.029648400000000002 0.010910866666666666
-0.2481196 0.0317884 -0.03365153333333334
-0.2479856 0.0317956 -0.030240533333333333
-0.24780166666666667 0.0318054 -0.025556533333333336
-0.24767353333333333 0.0318122 -0.022296
-0.24878606666666667 0.03175286666666667 -0.05061873333333333
-0.24861213333333335 0.031762066666666665 -0.046189933333333336
-0.24749006666666667 0.031821999999999996 -0.017623733333333332
-0.24735673333333336 0.031829133333333336 -0.014230066666666668
-0.248472 0.03176966666666667 -0.042622799999999995
-0.24829846666666666 0.031778933333333335 -0.0382052
-0.24871959999999999 0.02537146666666667 0.014923266666666666
-0.25071533333333335 0.0198438 0.018326000000000002
-0.2471404 0.03184066666666666 -0.008723133333333332
-0.24700193333333334 0.03184806666666667 -0.005198133333333333
-0.246836 0.03185686666666667 -0.0009733333333333333
-0.2466924 0.031864533333333334 0.0026836
-0.24423686666666666 0.03205926666666667 0.007191266666666667
-0.2449124666666667 0.029914133333333332 0.010924933333333333
-0.24584893333333332 0.0319096 -0.0335894
-0.24571626666666668 0.03191666666666667 -0.030183133333333334
-0.24553419999999998 0.0319264 -0.025505466666666664
-0.24540746666666668 0.03193326666666667 -0.022249333333333333
-0.24650833333333333 0.03187446666666667 -0.05053333333333333
-0.2463362 0.0318836 -0.0461106
-0.24522593333333334 0.03194293333333333 -0.017583466666666665
-0.24509393333333335 0.03195 -0.0141944
-0.2461976 0.031890999999999996 -0.0425484
-0.24602586666666668 0.031900200000000004 -0.0381368
-0.2462832 0.0259162 0.014952866666666667
-0.2479618 0.021168466666666667 0.018406133333333335
-0.24488000000000001 0.03196126666666667 -0.008695000000000001
-0.24474293333333333 0.031968666666666666 -0.005174733333333333
-0.24457873333333333 0.0319774 -0.0009556666666666667
-0.24443659999999998 0.03198486666666667 0.0026963333333333336
-0.24197646666666667 0.032213066666666665 0.007201133333333333
-0.2426038 0.030179133333333334 0.010939
-0.2435844 0.0320306 -0.03352773333333334
-0.24345326666666667 0.03203753333333333 -0.030126066666666666
-0.2432731333333333 0.03204713333333333 -0.0254548
-0.2431477333333333 0.032053733333333334 -0.022203133333333333
-0.244237 0.031995666666666665 -0.05044866666666667
-0.24406666666666668 0.032004733333333334 -0.046032
-0.24296806666666668 0.032063466666666665 -0.017543466666666667
-0.24283760000000001 0.0320702 -0.014159066666666666
-0.24392946666666668 0.032012200000000005 -0.0424746
-0.24375960000000002 0.03202113333333333 -0.038069066666666665
-0.24372486666666668 0.026805000000000002 0.015010466666666666
-0.24536433333333332 0.022121466666666666 0.01845873333333333
-0.2426258 0.0320816 -0.008667000000000001
-0.24249020000000002 0.03208886666666667 -0.005151466666666666
-0.2508652666666667 0.0072398 0.021689999999999997
-0.24232766666666666 0.03209753333333333 -0.0009380666666666666
-0.24218706666666667 0.03210506666666667 0.002709
-0.2397222 0.0323664 0.0072109999999999995
-0.2403022 0.030443133333333334 0.010953133333333333
-0.24132599999999998 0.032151 -0.033466666666666665
-0.2411962 0.03215786666666667 -0.0300696
-0.24101793333333335 0.0321674 -0.025404533333333333
-0.24089393333333334 0.032174 -0.0221572
-0.24197153333333335 0.032116533333333336 -0.050364733333333335
-0.24180306666666668 0.03212553333333333 -0.045954
-0.24071613333333333 0.0321834 -0.017503866666666666
-0.240587 0.0321904 -0.014123866666666667
-0.24166726666666666 0.03213286666666667 -0.042401466666666665
-0.2414992 0.0321418 -0.038001799999999995
-0.24112799999999998 0.02782513333333333 0.0150788
-0.24246766666666666 0.023897733333333334 0.018573133333333332
-0.2403774 0.032201600000000004 -0.008639200000000001
-0.24024326666666665 0.0322088 -0.0051284
-0.24610153333333334 0.013838133333333334 0.022116466666666668
-0.24008253333333332 0.0322174 -0.0009206
-0.23994333333333331 0.032224800000000005 0.0027216666666666665
-0.23747786666666665 0.03250946666666667 0.007219866666666667
-0.23800773333333333 0.030706400000000002 0.010967266666666666
-0.23907346666666665 0.032271133333333334 -0.033406066666666664
-0.23894506666666665 0.03227806666666667 -0.030013466666666665
-0.23876873333333334 0.0322874 -0.025354666666666668
-0.238646 0.03229406666666666 -0.022111666666666665
-0.23971226666666665 0.0322372 -0.05028153333333333
-0.2395455333333333 0.032246000000000004 -0.04587673333333333
-0.23847013333333333 0.0323034 -0.017464466666666668
-0.23834233333333332 0.0323102 -0.014088999999999999
-0.23941120000000002 0.0322532 -0.04232893333333333
-0.23924493333333335 0.032262 -0.03793513333333333
-0.23876953333333334 0.028239999999999998 0.015098466666666668
-0.24000539999999998 0.024558266666666665 0.0186044
-0.238135 0.032321333333333334 -0.0086116
-0.23800233333333332 0.032328333333333334 -0.0051053999999999995
-0.2428236 0.016594266666666666 0.022281266666666667
-0.2378432 0.032337 -0.0009031333333333333
-0.23770553333333336 0.03234426666666666 0.0027342666666666667
-0.2352496 0.032625133333333334 0.007226333333333334
-0.23570626666666666 0.03100666666666667 0.010984733333333333
-0.23682699999999998 0.03239106666666667 -0.033345933333333334
-0.23669993333333333 0.0323978 -0.029957866666666666
-0.23652546666666666 0.03240733333333333 -0.025305200000000003
-0.23640406666666666 0.0324136 -0.022066466666666666
-0.23745886666666666 0.032357333333333335 -0.050199
-0.23729393333333335 0.0323662 -0.04580006666666667
-0.23623006666666668 0.032422933333333334 -0.017425399999999997
-0.2361036 0.032429733333333335 -0.014054333333333334
-0.237161 0.03237333333333333 -0.04225693333333334
-0.23699653333333334 0.03238206666666667 -0.037869
-0.236432 0.028619466666666666 0.0151154
-0.2375538 0.025215733333333334 0.0186356
-0.23589853333333333 0.032440666666666666 -0.008584133333333332
-0.23576726666666667 0.0324476 -0.0050826000000000005
-0.2400194 0.0181352 0.022363533333333335
-0.23560993333333335 0.032456 -0.0008858666666666667
-0.23547366666666666 0.03246333333333333 0.0027468
-0.23302726666666668 0.03274026666666666 0.007232733333333334
-0.23340013333333334 0.03133913333333333 0.011005133333333333
-0.23458653333333332 0.0325106 -0.033286333333333334
-0.2344608 0.0325174 -0.029902666666666668
-0.23428826666666666 0.032526533333333336 -0.025256066666666667
-0.23416813333333333 0.03253293333333333 -0.0220216
-0.2352116 0.03247733333333333 -0.0501172
-0.23504846666666665 0.032486 -0.04572406666666667
-0.23399599999999998 0.03254226666666667 -0.0173866
-0.23387093333333334 0.03254886666666666 -0.01402
-0.234917 0.032493 -0.042185600000000004
-0.23475426666666666 0.032501666666666665 -0.03780346666666667
-0.23410266666666668 0.028997333333333333 0.015132399999999999
-0.2351128 0.0258702 0.018666799999999997
-0.23366806666666667 0.03255966666666667 -0.008556866666666666
-0.23353813333333334 0.032566733333333334 -0.005059866666666666
-0.2372882 0.01952 0.022435466666666667
-0.23338253333333334 0.032574933333333334 -0.0008686000000000001
-0.23324773333333332 0.03258213333333333 0.0027593333333333337
-0.23081046666666666 0.03285506666666667 0.007239133333333333
-0.23110133333333333 0.0316704 0.011025533333333334
-0.2323517333333333 0.03262993333333333 -0.0332272
-0.2322274 0.03263646666666667 -0.029847933333333333
-0.2320566666666667 0.032645733333333336 -0.025207399999999998
-0.23193786666666666 0.032651933333333334 -0.021977133333333333
-0.23297006666666667 0.03259686666666667 -0.05003613333333334
-0.23280866666666666 0.032605466666666666 -0.04564873333333333
-0.2317676 0.032661 -0.017348133333333335
-0.23164386666666664 0.03266773333333333 -0.013985866666666668
-0.23267859999999999 0.03261253333333333 -0.04211486666666667
-0.2325176 0.032621066666666663 -0.03773846666666667
-0.231781 0.029374066666666664 0.015149466666666667
-0.23270766666666667 0.026451266666666664 0.018692733333333333
-0.23144320000000002 0.03267833333333334 -0.0085298
-0.23131473333333333 0.03268526666666667 -0.005037333333333334
-0.23441306666666667 0.021339733333333333 0.022537533333333335
-0.23744373333333335 0.012656466666666666 0.025367466666666668
-0.2311607333333333 0.032693466666666664 -0.0008514666666666667
-0.2310274 0.03270066666666667 0.0027718
-0.22859933333333335 0.03296986666666667 0.0072456000000000005
-0.22880986666666667 0.032000600000000004 0.011045933333333334
-0.23012266666666664 0.03274873333333333 -0.03316853333333333
-0.22999966666666666 0.03275546666666666 -0.0297936
-0.22983086666666666 0.0327644 -0.025159066666666667
-0.22971326666666667 0.03277066666666666 -0.021932933333333335
-0.23073426666666666 0.0327162 -0.049955733333333335
-0.23057460000000002 0.032724666666666666 -0.045574
-0.22954486666666665 0.03277973333333333 -0.017309933333333336
-0.22942253333333334 0.0327862 -0.013951933333333333
-0.230446 0.0327316 -0.042044733333333334
-0.2302868 0.03274013333333333 -0.03767393333333333
-0.22946713333333332 0.029749533333333335 0.015166533333333334
-0.23032726666666664 0.026987933333333332 0.018715533333333333
-0.22922399999999998 0.03279686666666667 -0.008502933333333332
-0.22909686666666668 0.03280366666666667 -0.005014866666666667
-0.23187033333333332 0.022283866666666666 0.02258
-0.23412306666666666 0.015685133333333334 0.025532733333333335
-0.22894453333333334 0.032811799999999995 -0.0008343333333333333
-0.22881273333333332 0.0328188 0.002784266666666667
-0.2263926 0.03308786666666667 0.0072524
-0.22655119999999998 0.03225893333333333 0.011060133333333333
-0.22789946666666666 0.0328674 -0.03311033333333333
-0.2277778 0.03287406666666667 -0.0297398
-0.2276108 0.032883 -0.02511113333333333
-0.22749453333333333 0.0328892 -0.02188913333333333
-0.2285044 0.0328352 -0.049876000000000004
-0.22834646666666666 0.0328436 -0.04549993333333333
-0.227328 0.03289793333333333 -0.017272
-0.227207 0.0329044 -0.013918333333333333
-0.22821933333333336 0.03285046666666667 -0.0419752
-0.22806179999999998 0.0328588 -0.037610000000000005
-0.22716119999999998 0.030123466666666664 0.015183666666666668
-0.22795626666666668 0.0275222 0.0187384
-0.22701059999999998 0.03291486666666667 -0.0084762
-0.22688493333333334 0.03292166666666667 -0.0049926
-0.2293408 0.0232228 0.0226224
-0.23123293333333333 0.017577266666666664 0.02562666666666667
-0.22673426666666666 0.03292966666666667 -0.0008173999999999999
-0.2266038 0.0329368 0.002796666666666667
-0.2241912 0.033205733333333334 0.007259266666666667
-0.22432566666666667 0.0324414 0.0110678
-0.22568173333333333 0.032985933333333335 -0.03305266666666667
-0.2255614 0.03299233333333333 -0.029686333333333332
-0.22539626666666665 0.033001133333333335 -0.025063600000000002
-0.22528126666666667 0.03300726666666667 -0.021845666666666666
-0.22628006666666664 0.03295386666666667 -0.049797
-0.22612386666666667 0.03296226666666666 -0.04542646666666667
-0.22511653333333334 0.033016000000000004 -0.017234333333333334
-0.22499686666666668 0.0330224 -0.013884866666666667
-0.22599806666666666 0.032969 -0.041906266666666664
-0.22584226666666665 0.03297733333333333 -0.0375466
-0.2248628 0.030496199999999998 0.015200866666666667
-0.22559413333333334 0.028054333333333334 0.018761266666666665
-0.2248026 0.033032933333333334 -0.0084496
-0.22467833333333334 0.033039400000000003 -0.0049704
-0.226743 0.024385733333333333 0.022680466666666666
-0.228541 0.018957 0.025688533333333333
-0.22452933333333333 0.03304733333333333 -0.0008004666666666666
-0.22440033333333334 0.033054266666666665 0.0028090666666666666
-0.2219954 0.033323 0.007266066666666667
-0.22210606666666666 0.03262333333333333 0.011075466666666667
-0.2234696 0.03310393333333333 -0.03299546666666667
-0.22335059999999998 0.033110266666666666 -0.029633399999999997
-0.22318726666666666 0.033118999999999996 -0.0250164
-0.2230736 0.033125 -0.021802533333333332
-0.22406126666666668 0.0330724 -0.04971866666666667
-0.2239068 0.0330806 -0.04535366666666667
-0.22291060000000001 0.03313373333333333 -0.017197
-0.22279220000000002 0.033140133333333335 -0.013851733333333333
-0.22378240000000002 0.033087200000000004 -0.04183786666666667
-0.22362833333333335 0.033095533333333337 -0.03748373333333333
-0.22257186666666667 0.03086773333333333 0.015218133333333333
-0.22324086666666665 0.028584533333333332 0.018784266666666667
-0.2226002 0.0331504 -0.008423266666666667
-0.2224772 0.03315693333333333 -0.0049484
-0.22432686666666665 0.025065 0.02270566666666667
-0.22586626666666668 0.02032753333333333 0.025750266666666667
-0.22232986666666665 0.0331648 -0.0007836000000000001
-0.22220233333333334 0.03317166666666667 0.0028214
-0.219805 0.03344013333333333 0.007272933333333333
-0.2198924 0.03280486666666667 0.0110832
-0.22126293333333333 0.03322173333333333 -0.03293873333333333
-0.22114526666666665 0.03322806666666667 -0.0295808
-0.22098373333333335 0.03323673333333334 -0.024969599999999998
-0.22087126666666668 0.033242799999999996 -0.021759666666666667
-0.22184806666666665 0.033190533333333334 -0.049641000000000005
-0.22169540000000001 0.033198399999999996 -0.045281466666666666
-0.22071013333333334 0.03325126666666667 -0.01715986666666667
-0.22059313333333333 0.0332574 -0.0138188
-0.22157233333333334 0.03320513333333333 -0.04177006666666667
-0.22142 0.03321333333333333 -0.0374214
-0.22028846666666665 0.031237933333333336 0.015235400000000001
-0.22089653333333334 0.029112533333333336 0.018807266666666666
-0.2204032 0.0332676 -0.008397066666666668
-0.2202816 0.03327413333333333 -0.004926466666666667
-0.22193026666666665 0.025714400000000002 0.02272906666666667
-0.22321973333333334 0.021656799999999997 0.02580973333333333
-0.22013586666666668 0.03328193333333333 -0.0007668
-0.22000973333333332 0.0332886 0.0028337333333333333
-0.21762006666666667 0.03355706666666667 0.007279866666666667
-0.21768473333333332 0.032985933333333335 0.011091
-0.21906193333333332 0.0333392 -0.0328824
-0.21894560000000002 0.03334533333333333 -0.029528733333333335
-0.2187858666666667 0.033353933333333335 -0.0249232
-0.2186746 0.033359933333333334 -0.0217172
-0.21964053333333336 0.033308199999999996 -0.049564000000000004
-0.21948946666666666 0.0333164 -0.04520986666666667
-0.21851533333333334 0.03336826666666667 -0.01712306666666667
-0.2183996 0.033374600000000004 -0.013786066666666668
-0.21936786666666666 0.033322866666666666 -0.041702866666666664
-0.2192172 0.03333093333333333 -0.0373596
-0.21801266666666666 0.03160693333333334 0.015252733333333332
-0.21856113333333335 0.029638466666666665 0.018830333333333334
-0.21821173333333332 0.033384533333333334 -0.008371
-0.2180916 0.03339093333333333 -0.004904733333333333
-0.21954466666666667 0.026358133333333332 0.0227524
-0.22072186666666666 0.022592066666666667 0.025844533333333333
-0.21794746666666667 0.03339866666666667 -0.0007501333333333333
-0.21782266666666666 0.03340533333333333 0.002846
-0.21544033333333334 0.0336736 0.0072867999999999995
-0.21548326666666667 0.033165 0.011098733333333333
-0.21686613333333332 0.03345633333333333 -0.0328266
-0.21675113333333332 0.03346246666666666 -0.029477
-0.2165932 0.03347093333333333 -0.024877133333333336
-0.21648326666666667 0.033476733333333335 -0.021675133333333332
-0.2174382 0.0334258 -0.049487666666666666
-0.21728886666666666 0.033433866666666666 -0.04513893333333333
-0.21632573333333335 0.03348513333333333 -0.0170866
-0.2162112 0.0334914 -0.0137536
-0.21716866666666668 0.03344013333333333 -0.041636266666666664
-0.21701966666666667 0.03344813333333333 -0.03729826666666667
-0.21577706666666666 0.03187726666666667 0.0152622
-0.21627473333333333 0.030043133333333336 0.018844466666666667
-0.21602546666666667 0.03350126666666667 -0.008345133333333334
-0.21590666666666666 0.03350753333333333 -0.004883066666666667
-0.2171892 0.026938399999999998 0.0227716
-0.2182661333333333 0.023434466666666667 0.02587386666666667
-0.21576420000000002 0.033515199999999995 -0.0007335333333333333
-0.21564086666666665 0.03352173333333333 0.0028582666666666667
-0.21326293333333332 0.03379826666666667 0.007294466666666667
-0.21329953333333332 0.033307666666666666 0.011103333333333333
-0.21467566666666665 0.03357326666666667 -0.03277126666666667
-0.21456193333333334 0.0335794 -0.029425733333333332
-0.2144058 0.0335876 -0.02483146666666667
-0.21429700000000002 0.0335936 -0.021633266666666665
-0.21524126666666668 0.033543133333333336 -0.049412066666666664
-0.21509366666666668 0.03355093333333334 -0.0450686
-0.21414126666666666 0.0336018 -0.017050333333333334
-0.21402813333333331 0.033607866666666666 -0.0137214
-0.21497473333333333 0.03355726666666667 -0.0415702
-0.21482746666666666 0.033565199999999996 -0.037237533333333336
-0.21357426666666665 0.03206866666666667 0.015265466666666666
-0.2140456 0.030298533333333332 0.018847600000000003
-0.21384453333333334 0.033617666666666664 -0.008319466666666667
-0.2137269333333333 0.033624 -0.0048615333333333335
-0.2148428666666667 0.027516133333333335 0.022790933333333332
-0.21582186666666667 0.024272466666666666 0.0259032
-0.21358613333333334 0.03363146666666667 -0.0007170000000000001
-0.21346420000000002 0.03363786666666667 0.0028704666666666667
-0.21108886666666665 0.03392866666666667 0.0073028
-0.21112126666666667 0.03345 0.011108
-0.21249046666666666 0.0336898 -0.0327164
-0.212378 0.03369593333333333 -0.029374933333333336
-0.21222366666666667 0.03370406666666667 -0.024786133333333335
-0.21211613333333332 0.03370993333333334 -0.0215918
-0.21304966666666666 0.03366006666666667 -0.04933706666666667
-0.21290373333333334 0.033667800000000005 -0.04499893333333334
-0.2119622 0.033718066666666664 -0.017014333333333336
-0.21185033333333333 0.033724 -0.0136894
-0.21278613333333332 0.03367406666666666 -0.041504733333333335
-0.21264059999999999 0.033681866666666664 -0.03717726666666667
-0.21137726666666667 0.03225953333333333 0.015268866666666665
-0.21181979999999997 0.030562266666666667 0.018851533333333333
-0.2116688 0.03373373333333333 -0.008293933333333333
-0.2115526 0.03373993333333333 -0.004840133333333333
-0.2125396 0.0279892 0.022803333333333335
-0.21340966666666666 0.025044200000000003 0.025928666666666666
-0.21141333333333331 0.03374733333333334 -0.0007005999999999999
-0.21129273333333334 0.033753799999999994 0.0028826
-0.20892026666666666 0.03405846666666667 0.007311066666666667
-0.20894846666666667 0.033592199999999996 0.0111128
-0.21031066666666665 0.03380626666666667 -0.032662
-0.21019946666666664 0.0338122 -0.029324466666666667
-0.21004693333333335 0.033820133333333335 -0.0247412
-0.20994066666666666 0.03382593333333333 -0.021550666666666666
-0.2108634666666667 0.03377666666666667 -0.0492628
-0.21071913333333334 0.033784466666666665 -0.0449298
-0.20978839999999999 0.03383406666666667 -0.0169786
-0.2096778 0.033839933333333336 -0.013657666666666667
-0.21060299999999998 0.0337906 -0.0414398
-0.210459 0.03379833333333333 -0.037117533333333334
-0.20918606666666667 0.03244986666666667 0.015272266666666668
-0.20959673333333334 0.0308364 0.01885646666666667
-0.2094984 0.033849533333333334 -0.0082686
-0.20938346666666666 0.03385573333333333 -0.004818866666666667
-0.21028480000000002 0.028338333333333333 0.022807466666666668
-0.21110273333333335 0.025525533333333333 0.025936
-0.2092458 0.03386306666666667 -0.0006841999999999999
-0.2091266 0.0338694 0.0028948000000000003
-0.20675659999999998 0.034188133333333336 0.0073194
-0.20678080000000001 0.03373366666666667 0.011117533333333334
-0.2081358 0.033922266666666666 -0.032608066666666664
-0.208026 0.03392813333333333 -0.029274466666666665
-0.2078750666666667 0.0339362 -0.0246966
-0.20777006666666667 0.0339418 -0.021509866666666665
-0.20868226666666667 0.03389313333333333 -0.04918913333333333
-0.2085396 0.03390066666666667 -0.04486133333333333
-0.20761960000000002 0.03394986666666667 -0.0169432
-0.20751026666666667 0.03395566666666667 -0.013626133333333333
-0.2084247333333333 0.03390686666666667 -0.041375466666666666
-0.20828253333333333 0.033914466666666664 -0.037058266666666666
-0.20700046666666666 0.0326396 0.0152758
-0.2073798 0.0311096 0.018861466666666667
-0.20733286666666664 0.0339652 -0.008243333333333333
-0.20721926666666668 0.03397126666666667 -0.004797733333333333
-0.2080368 0.028686133333333332 0.02281173333333333
-0.20879393333333332 0.0260348 0.0259454
-0.20708326666666668 0.0339784 -0.0006679333333333334
-0.2069654 0.03398486666666667 0.002906866666666667
-0.20459806666666666 0.03431753333333333 0.0073277333333333335
-0.20461826666666666 0.03387506666666666 0.011122400000000001
-0.20596613333333333 0.034038 -0.03255453333333333
-0.20585753333333334 0.0340438 -0.02922486666666667
-0.20664733333333332 0.03400173333333333 -0.053444733333333334
-0.20570839999999999 0.034051866666666666 -0.02465233333333333
-0.2056046 0.0340574 -0.021469333333333333
-0.2065062 0.03400926666666667 -0.04911613333333333
-0.2063652 0.0340168 -0.0447934
-0.20545586666666665 0.03406526666666666 -0.016908
-0.20534780000000002 0.034071 -0.013594799999999999
-0.20625166666666667 0.034022866666666665 -0.04131166666666666
-0.20611106666666668 0.03403026666666666 -0.0369996
-0.2048204 0.03282893333333333 0.015279466666666667
-0.2051692 0.031382 0.018866666666666664
-0.2051724 0.03408046666666666 -0.008218333333333333
-0.2050602 0.034086399999999996 -0.004776666666666667
-0.2057826 0.029073066666666664 0.022818933333333333
-0.20647093333333333 0.026611666666666665 0.0259594
-0.2049256 0.03409366666666667 -0.0006516666666666667
-0.20480926666666666 0.03409973333333333 0.002918933333333333
-0.20244486666666667 0.03444646666666666 0.007336066666666667
-0.20246113333333332 0.034016000000000005 0.011127333333333333
-0.20380153333333334 0.0341536 -0.03250153333333333
-0.20369426666666665 0.03415933333333333 -0.029175733333333335
-0.20447493333333336 0.0341176 -0.053367399999999995
-0.20354686666666666 0.034167199999999995 -0.024608466666666665
-0.20344426666666668 0.03417253333333334 -0.021429133333333333
-0.2043354 0.03412506666666667 -0.0490438
-0.20419606666666665 0.034132466666666667 -0.044726133333333334
-0.20329726666666667 0.034180466666666666 -0.016873133333333335
-0.2031904 0.034186266666666666 -0.013563733333333333
-0.20408386666666667 0.034138466666666666 -0.0412484
-0.20394479999999998 0.034145933333333336 -0.03694133333333333
-0.20264606666666665 0.0330176 0.0152832
-0.20296486666666666 0.031653733333333336 0.018871933333333334
-0.20301713333333332 0.0341954 -0.008193466666666666
-0.2029062 0.0342014 -0.0047558
-0.20353233333333334 0.0294694 0.022827
-0.2041568 0.0271864 0.025973533333333333
-0.20277326666666667 0.034208466666666666 -0.0006355333333333333
-0.20265813333333332 0.0342146 0.002931
-0.20029646666666664 0.03457526666666667 0.0073444
-0.20030893333333333 0.0341566 0.011132333333333333
-0.20164186666666667 0.0342688 -0.03244893333333333
-0.20153573333333333 0.0342746 -0.029126933333333334
-0.20230726666666668 0.03423333333333333 -0.05329066666666667
-0.20139013333333333 0.034282266666666665 -0.024564933333333334
-0.20128873333333336 0.0342876 -0.021389266666666667
-0.2021694 0.034240733333333336 -0.04897206666666667
-0.20203166666666666 0.03424806666666667 -0.0446594
-0.20114346666666666 0.03429533333333334 -0.016838466666666666
-0.20103786666666668 0.03430113333333333 -0.013532866666666667
-0.20192079999999998 0.03425386666666667 -0.04118573333333333
-0.2017834 0.03426133333333334 -0.0368836
-0.200477 0.0332058 0.015287066666666667
-0.20076653333333333 0.0319244 0.018877333333333336
-0.2008666 0.034310266666666665 -0.008168733333333334
-0.200757 0.034316066666666666 -0.0047350000000000005
-0.201289 0.0298644 0.022835266666666666
-0.2018510666666667 0.0277586 0.025987800000000002
-0.2006256 0.034323066666666666 -0.0006194666666666667
-0.20051186666666665 0.03432913333333333 0.002943
-0.19815293333333334 0.034703599999999994 0.0073528000000000005
-0.19816166666666665 0.034297133333333334 0.011137333333333332
-0.19948706666666668 0.03438373333333333 -0.032396799999999996
-0.1993822 0.03438946666666667 -0.0290786
-0.20014466666666667 0.0343488 -0.05321466666666667
-0.19923826666666666 0.0343972 -0.0245218
-0.19913813333333333 0.03440240000000001 -0.021349733333333332
-0.2000084 0.03435593333333333 -0.048901066666666666
-0.19987226666666666 0.03436333333333333 -0.044593266666666666
-0.19899453333333333 0.034410133333333336 -0.016804066666666666
-0.19889020000000002 0.03441573333333334 -0.013502266666666667
-0.19976273333333333 0.034369133333333336 -0.0411236
-0.1996269333333333 0.03437646666666667 -0.0368264
-0.19831326666666668 0.03339366666666667 0.015291
-0.19857426666666667 0.03219433333333333 0.018882866666666668
-0.198721 0.034424666666666666 -0.008144199999999999
-0.1986126 0.03443046666666667 -0.004714333333333333
-0.19905266666666668 0.03025806666666667 0.022843666666666665
-0.19955393333333332 0.0283286 0.026002266666666666
-0.1984828 0.034437466666666666 -0.0006034666666666666
-0.19837033333333334 0.03444353333333334 0.002955
-0.1960144 0.03483173333333334 0.0073612
-0.19601853333333336 0.03444013333333333 0.011142733333333333
-0.19733713333333333 0.03449873333333333 -0.032345066666666665
-0.19723353333333332 0.03450413333333333 -0.0290306
-0.19798686666666668 0.03446393333333333 -0.05313926666666667
-0.19709133333333334 0.034511733333333336 -0.024478999999999997
-0.19699226666666667 0.03451713333333333 -0.02131046666666667
-0.19785219999999998 0.034471133333333334 -0.048830599999999995
-0.1977178 0.03447826666666667 -0.04452773333333333
-0.19685046666666667 0.0345246 -0.01677
-0.1967474 0.03453006666666667 -0.013471866666666667
-0.19760946666666665 0.03448413333333333 -0.041062
-0.1974754 0.03449113333333333 -0.03676973333333333
-0.196155 0.0335808 0.015295
-0.19638793333333335 0.03246346666666667 0.018888533333333336
-0.19658013333333332 0.034539 -0.0081198
-0.19647306666666667 0.0345446 -0.0046938
-0.1968234 0.0306504 0.0228522
-0.19730786666666666 0.0287584 0.026008
-0.19634479999999999 0.0345516 -0.0005875333333333333
-0.19623373333333335 0.034557533333333335 0.0029669333333333333
-0.1938808 0.0349596 0.0073696000000000005
-0.19388013333333334 0.03458393333333333 0.0111482
-0.1951922 0.034613 -0.0322938
-0.19508979999999998 0.03461846666666667 -0.028983066666666668
-0.19583413333333333 0.0345788 -0.05306466666666666
-0.19494933333333334 0.034626000000000004 -0.024436533333333333
-0.19485146666666667 0.03463126666666667 -0.0212716
-0.19570113333333333 0.034585866666666666 -0.048760866666666666
-0.19556826666666666 0.034593066666666665 -0.044462800000000004
-0.19471133333333332 0.03463873333333333 -0.016736133333333333
-0.19460946666666665 0.0346442 -0.013441666666666666
-0.1954612666666667 0.034598666666666666 -0.04100093333333333
-0.1953288 0.034605666666666667 -0.036713466666666666
-0.19400206666666667 0.033767733333333334 0.015299133333333333
-0.19420773333333333 0.0327318 0.018894266666666666
-0.19444426666666667 0.03465293333333333 -0.0080956
-0.19433846666666668 0.0346586 -0.004673399999999999
-0.19460113333333334 0.0310414 0.022860866666666667
-0.19509493333333333 0.029102666666666666 0.0260086
-0.19421173333333333 0.0346654 -0.0005716666666666666
-0.1941019333333333 0.034671266666666666 0.002978866666666667
-0.19175286666666666 0.0350838 0.007377733333333333
-0.19174646666666667 0.0347274 0.0111538
-0.1930518 0.034727266666666666 -0.032243
-0.19295073333333335 0.034732733333333335 -0.028935933333333334
-0.19368606666666668 0.0346934 -0.05299073333333334
-0.19281193333333332 0.034740066666666666 -0.0243944
-0.19271526666666666 0.03474526666666666 -0.021233
-0.19355466666666665 0.03470046666666667 -0.04869166666666667
-0.1934234 0.03470733333333333 -0.04439846666666667
-0.19257673333333333 0.03475266666666667 -0.01670253333333333
-0.19247613333333333 0.03475806666666667 -0.013411733333333333
-0.19331766666666667 0.03471306666666667 -0.04094046666666666
-0.1931868 0.03472 -0.03665773333333333
-0.19185433333333332 0.0339538 0.015303333333333334
-0.19203326666666667 0.032999266666666666 0.0189002
-0.19231293333333335 0.03476666666666666 -0.008071533333333334
-0.1922084 0.03477226666666667 -0.004653133333333333
-0.19240866666666667 0.0313548 0.0228644
-0.1928882 0.029445933333333334 0.026009466666666665
-0.19208319999999998 0.03477893333333334 -0.0005558666666666667
-0.19197473333333334 0.03478473333333333 0.0029907333333333334
-0.18963266666666667 0.0351976 0.007384933333333333
-0.18961766666666666 0.034870733333333334 0.011159400000000002
-0.1909162 0.03484126666666666 -0.0321926
-0.19081633333333334 0.0348466 -0.0288892
-0.19154273333333333 0.03480780000000001 -0.05291746666666666
-0.19067913333333333 0.03485393333333333 -0.02435266666666667
-0.19058366666666665 0.034859 -0.021194666666666664
-0.19141286666666665 0.0348148 -0.0486232
-0.19128326666666667 0.0348216 -0.044334733333333334
-0.19044686666666666 0.034866266666666666 -0.0166692
-0.19034753333333335 0.034871533333333336 -0.013382
-0.19117886666666667 0.034827199999999996 -0.04088053333333333
-0.19104946666666667 0.03483413333333333 -0.03660253333333333
-0.18971173333333333 0.034139666666666665 0.015307666666666667
-0.18986453333333334 0.03326606666666667 0.018906199999999998
-0.19018626666666666 0.03488013333333333 -0.008047666666666667
-0.190083 0.03488566666666667 -0.004632933333333334
-0.1902411333333333 0.03160453333333333 0.0228638
-0.19068800000000002 0.029787866666666666 0.026010466666666666
-0.18995926666666665 0.034892266666666664 -0.0005401333333333333
-0.1898522 0.034898066666666665 0.0030026000000000002
-0.1875172 0.03531126666666666 0.007392133333333333
-0.1874938 0.035013466666666666 0.011165066666666668
-0.18878533333333333 0.034954933333333334 -0.03214266666666667
-0.18868666666666664 0.0349602 -0.028842866666666668
-0.1894042 0.03492186666666666 -0.052844866666666664
-0.1885512 0.034967533333333335 -0.024311199999999998
-0.18845693333333333 0.03497246666666667 -0.021156666666666667
-0.1892759333333333 0.03492866666666667 -0.04855533333333333
-0.18914793333333335 0.0349356 -0.044271533333333335
-0.1883218 0.034979666666666666 -0.016636133333333334
-0.18822360000000002 0.03498493333333333 -0.013352466666666667
-0.1890448 0.034941066666666666 -0.04082106666666666
-0.188917 0.034947933333333334 -0.03654773333333334
-0.1875744 0.034324933333333335 0.015312066666666667
-0.18772433333333333 0.03345593333333333 0.0189066
-0.18806433333333333 0.034993399999999994 -0.008023866666666667
-0.1879624 0.03499886666666666 -0.004612866666666667
-0.18807946666666667 0.031853266666666664 0.0228634
-0.1884942 0.030128933333333333 0.026011666666666666
-0.1878402 0.03500533333333333 -0.0005245333333333334
-0.18773433333333334 0.03501113333333334 0.0030144666666666667
-0.18540613333333333 0.03542466666666667 0.007399333333333333
-0.18537453333333334 0.03515586666666667 0.0111708
-0.18665893333333333 0.035068466666666666 -0.032093133333333336
-0.18656146666666668 0.03507373333333333 -0.028796866666666664
-0.18727013333333334 0.0350358 -0.052772933333333334
-0.18642766666666669 0.03508073333333333 -0.024270133333333332
-0.18633453333333333 0.03508579999999999 -0.021119
-0.18714353333333333 0.0350426 -0.048487999999999996
-0.187017 0.035049333333333335 -0.044208866666666666
-0.18620106666666666 0.03509286666666667 -0.016603266666666665
-0.18610413333333334 0.03509806666666667 -0.0133232
-0.18691513333333332 0.035054800000000004 -0.0407622
-0.186789 0.035061466666666666 -0.03649346666666667
-0.18544193333333334 0.034509733333333334 0.015316533333333333
-0.1855906 0.03363973333333334 0.01890666666666667
-0.1859468 0.03510633333333334 -0.008000333333333333
-0.18584606666666667 0.03511193333333333 -0.004592933333333333
-0.18592306666666666 0.032101533333333335 0.022863133333333334
-0.18630653333333333 0.030469000000000003 0.026013066666666664
-0.18572533333333335 0.035118333333333335 -0.0005089333333333333
-0.18562086666666666 0.035123800000000004 0.0030262
-0.18329946666666666 0.035537799999999994 0.0074066
-0.18326 0.035298 0.0111766
-0.18453706666666667 0.03518166666666667 -0.03204406666666667
-0.18444086666666668 0.03518673333333333 -0.028751333333333334
-0.18514073333333333 0.035149466666666664 -0.05270166666666667
-0.18430873333333334 0.03519386666666667 -0.0242294
-0.18421673333333333 0.035198799999999995 -0.0210816
-0.18501566666666666 0.03515613333333333 -0.048421399999999996
-0.18489073333333333 0.0351628 -0.044146866666666666
-0.18408486666666668 0.03520586666666667 -0.016570666666666668
-0.18398913333333333 0.03521093333333333 -0.013294066666666667
-0.18479013333333333 0.03516806666666667 -0.04070386666666667
-0.18466553333333333 0.0351748 -0.03643973333333333
-0.18331453333333333 0.03469406666666666 0.015321133333333332
-0.18346193333333333 0.033823200000000005 0.018906933333333334
-0.18383373333333333 0.0352194 -0.007976866666666667
-0.18373426666666667 0.0352246 -0.004573066666666667
-0.18377226666666668 0.03234906666666667 0.022863066666666664
-0.18412499999999998 0.030807866666666666 0.02601466666666667
-0.18361513333333335 0.035230866666666666 -0.0004934666666666667
-0.18351186666666666 0.03523646666666667 0.003038
-0.09087766666666666 0.36085086666666666 -0.0336164
-0.18119726666666666 0.03565073333333334 0.007413866666666667
-0.18115006666666666 0.03543986666666667 0.011182466666666667
-0.18241966666666667 0.03529466666666667 -0.0319954
-0.18232466666666666 0.03529973333333333 -0.02870613333333333
-0.1830158 0.03526286666666667 -0.05263113333333334
-0.1821942 0.03530673333333333 -0.024189000000000002
-0.18210333333333334 0.035311666666666665 -0.021044533333333334
-0.18289226666666666 0.035269466666666666 -0.048355333333333334
-0.18276893333333336 0.035276 -0.04408533333333333
-0.18197313333333334 0.03531853333333333 -0.016538399999999998
-0.18187866666666666 0.035323466666666664 -0.0132652
-0.18266953333333333 0.03528133333333334 -0.040645999999999995
-0.18254646666666666 0.035287933333333334 -0.0363864
-0.181192 0.034878 0.015325866666666667
-0.18133813333333335 0.03400626666666667 0.01890733333333333
-0.18172513333333334 0.03533186666666666 -0.007953533333333334
-0.181627 0.035336933333333334 -0.0045534
-0.18162673333333332 0.032596066666666666 0.022863133333333334
-0.18194966666666668 0.03114573333333333 0.02601646666666667
-0.18150919999999998 0.035343400000000004 -0.000478
-0.18140733333333334 0.03534873333333333 0.0030497333333333334
-0.08983373333333335 0.36090520000000004 -0.033536800000000005
-0.1790996 0.03576326666666666 0.007421133333333333
-0.17904486666666666 0.035581266666666674 0.011188333333333333
-0.18030686666666668 0.0354074 -0.0319472
-0.18021306666666667 0.035412400000000004 -0.0286614
-0.18089546666666667 0.035376 -0.052561199999999995
-0.1800842 0.0354194 -0.024148999999999997
-0.17999453333333332 0.03542413333333334 -0.0210078
-0.18077346666666666 0.0353826 -0.04828993333333333
-0.18065173333333334 0.035389 -0.0440244
-0.179866 0.03543093333333334 -0.016506333333333335
-0.17977266666666666 0.035436 -0.013236533333333333
-0.1805536 0.0353942 -0.040588733333333335
-0.18043206666666667 0.03540086666666666 -0.036333533333333334
-0.1790746 0.0350614 0.0153306
-0.1792194 0.03418873333333334 0.018907866666666665
-0.17962113333333332 0.03544406666666667 -0.007930466666666667
-0.1795242 0.0354492 -0.0045338
-0.17948693333333335 0.03284206666666666 0.0228634
-0.17978053333333335 0.0314824 0.026018466666666667
-0.17940793333333332 0.035455466666666664 -0.00046259999999999997
-0.17930733333333335 0.03546086666666667 0.0030614666666666664
-0.08773693333333334 0.36423140000000004 -0.028659466666666668
-0.0887922 0.36095893333333334 -0.0334582
-0.17700613333333332 0.03587573333333333 0.0074284
-0.17694400000000002 0.035722533333333334 0.011194333333333334
-0.17819826666666666 0.03552006666666666 -0.031899333333333335
-0.17810566666666666 0.03552493333333333 -0.028616933333333334
-0.17877939999999998 0.03548893333333333 -0.05249193333333334
-0.17797853333333336 0.03553166666666666 -0.024109266666666667
-0.17788993333333333 0.03553646666666667 -0.020971333333333335
-0.178659 0.035495399999999996 -0.048225133333333337
-0.1785388 0.035501733333333334 -0.04396406666666666
-0.177763 0.0355432 -0.016474466666666666
-0.17767086666666668 0.03554813333333333 -0.013208133333333334
-0.17844193333333333 0.03550693333333333 -0.04053193333333334
-0.17832193333333332 0.03551346666666667 -0.0362812
-0.1769618 0.035244333333333336 0.015335533333333333
-0.17710526666666665 0.03437093333333333 0.01890853333333333
-0.17752133333333334 0.035556066666666664 -0.007907466666666666
-0.17742553333333333 0.035561199999999994 -0.004514266666666667
-0.17735206666666667 0.033087733333333334 0.022863866666666666
-0.1776174 0.03181766666666667 0.0260206
