0.012478133333333334 0.3294118 -0.024309133333333333
0.013333533333333333 0.30596986666666665 -0.027322799999999998
0.011440466666666668 0.35916193333333335 -0.0337862
0.011357666666666665 0.36115786666666666 -0.030760666666666665
0.0175872 0.2261226 -0.03366826666666667
0.018146600000000002 0.21187566666666668 -0.03450533333333334
0.024613200000000002 0.041966133333333336 0.007863
0.0244028 0.0469524 0.011911399999999999
0.018394933333333332 0.2053748 -0.033121733333333334
0.019620066666666665 0.17430506666666667 -0.036306333333333336
0.015271733333333334 0.2850989333333333 -0.03020573333333333
0.015559333333333333 0.27765453333333334 -0.029446466666666667
0.020452066666666668 0.15319306666666668 -0.03833806666666666
0.021261266666666667 0.13252353333333333 -0.038962199999999995
0.016862 0.24484906666666667 -0.035130800000000004
0.0161684 0.2619644666666667 -0.028594466666666665
0.025199199999999998 0.030873066666666667 -0.0313274
0.0247282 0.042448733333333336 -0.02641613333333333
0.022371333333333333 0.10421773333333334 -0.040297933333333334
0.023048066666666665 0.08694186666666666 -0.0409022
0.024967200000000002 0.035988200000000005 -0.023040333333333333
0.024837333333333333 0.0389716 -0.01960946666666667
0.0245822 0.0479584 -0.04410786666666667
0.025390000000000003 0.0272176 -0.0436638
0.02487726666666667 0.037535933333333334 -0.0154882
0.024707733333333332 0.04151613333333334 -0.011851133333333335
0.025458133333333334 0.025172266666666665 -0.040657066666666665
0.025279533333333333 0.029266066666666667 -0.03583753333333333
0.025194666666666664 0.02643713333333333 0.014187466666666667
0.0249254 0.032929933333333335 0.0182406
0.024957133333333333 0.03470106666666666 -0.007592933333333333
0.025362866666666664 0.02409793333333333 -0.005509866666666667
0.024848866666666667 0.03448986666666667 0.02225766666666667
0.025157466666666666 0.0263254 0.02483926666666667
0.024837 0.0370346 -0.0001468
0.02494293333333333 0.03401166666666667 0.0029334
0.012039 0.36742213333333335 -0.025225
0.012962133333333332 0.3441332 -0.0288408
0.013408733333333334 0.3327488 -0.029417933333333333
0.0132708 0.3358808 -0.025399533333333335
0.013623133333333334 0.3268165333333333 -0.025015933333333334
0.014157333333333333 0.31317306666666667 -0.025452333333333334
0.0124458 0.3578978666666667 -0.034207266666666666
0.012019066666666666 0.3682602 -0.028503333333333332
0.019362666666666663 0.21633186666666668 -0.03590533333333333
0.019481933333333333 0.21332346666666666 -0.03419013333333333
0.02668066666666667 0.03791493333333333 0.007482133333333333
0.026965733333333335 0.030832933333333333 0.010488066666666665
0.01985273333333333 0.2044166 -0.033335666666666666
0.021436933333333335 0.16717926666666666 -0.0378034
0.016541733333333333 0.2829212 -0.030766
0.017140533333333333 0.2687652 -0.03165
0.021772466666666667 0.1591304666666667 -0.03713046666666667
0.022898599999999998 0.13252573333333334 -0.03896826666666667
0.017740199999999998 0.2546144 -0.0327814
0.017940066666666664 0.2497302 -0.03148126666666667
0.026544133333333334 0.04482906666666667 -0.02918053333333333
0.0267652 0.039340200000000006 -0.02688353333333333
0.024575666666666666 0.09297953333333334 -0.042441599999999996
0.025409866666666666 0.0732382 -0.0434512
0.026787000000000002 0.038404 -0.0227
0.026668933333333332 0.040876866666666664 -0.019350466666666667
0.026730266666666665 0.042001 -0.0451806
0.027737266666666666 0.018053466666666667 -0.0452508
0.027252466666666666 0.0267506 -0.016899
0.0267488 0.038268666666666666 -0.012261
0.027186666666666668 0.030601733333333332 -0.039754
0.0273344 0.026736866666666668 -0.036249133333333336
0.026576 0.039626 0.015269933333333334
0.027175066666666668 0.025138 0.017647000000000003
0.0268952 0.0343236 -0.0076386
0.02708393333333333 0.029559266666666664 -0.0048974
0.026941733333333332 0.030255733333333333 0.021962533333333333
0.0266338 0.037222533333333335 0.025553733333333332
0.0270352 0.03031573333333333 -0.0008602666666666667
0.0266074 0.04005186666666667 0.0035418
0.012728 0.3729187333333333 -0.023544799999999998
0.013650266666666666 0.35129753333333336 -0.026727066666666667
0.014085733333333333 0.34097286666666665 -0.027059133333333332
0.014482933333333333 0.3314811333333333 -0.026631533333333336
0.014481333333333334 0.33123953333333334 -0.0238298
0.015887266666666667 0.29834486666666665 -0.029323866666666667
0.013415133333333332 0.3576486 -0.03429753333333333
0.013075933333333335 0.3652354666666667 -0.029476266666666664
0.020063066666666667 0.23118986666666666 -0.03252853333333333
0.021285266666666667 0.20442146666666666 -0.036178133333333334
0.028464133333333332 0.04065993333333333 0.007741
0.028731333333333334 0.03442266666666667 0.010806199999999998
0.021374800000000003 0.2021988 -0.03382266666666667
0.023167066666666666 0.1628992 -0.03870593333333334
0.0179052 0.27901760000000003 -0.031765133333333334
0.018506599999999998 0.26573146666666664 -0.032407533333333335
0.0242194 0.13977599999999998 -0.041096
0.024811666666666666 0.12653493333333332 -0.04016006666666667
0.018600466666666666 0.26347166666666666 -0.030651333333333333
0.019482266666666668 0.24411153333333332 -0.03281153333333334
0.029221866666666665 0.027793333333333333 -0.03181093333333333
0.0284804 0.04369686666666666 -0.026237866666666665
0.026021133333333335 0.09978440000000001 -0.0411542
0.027410466666666668 0.06924613333333333 -0.044198799999999996
0.0290076 0.03173486666666667 -0.0236522
0.028402666666666666 0.04468266666666666 -0.018830466666666667
0.028908800000000002 0.03618626666666667 -0.04622833333333333
0.029221733333333333 0.028953 -0.04337626666666667
0.029100133333333333 0.0289762 -0.016610933333333334
0.028794466666666668 0.0353636 -0.012628
0.029229066666666668 0.028464800000000002 -0.04011726666666667
0.029284066666666667 0.026854933333333334 -0.03623526666666667
0.028521066666666664 0.038651 0.015191533333333333
0.0284476 0.0399236 0.018778733333333335
0.028677266666666666 0.03742973333333333 -0.0072750666666666665
0.0292042 0.0255396 -0.0053499333333333335
0.028730066666666665 0.03331286666666667 0.022179800000000003
0.028941866666666666 0.0283318 0.024975933333333332
0.028852199999999998 0.03287826666666667 -0.0005888666666666667
0.028476133333333334 0.04080586666666666 0.0036177333333333333
0.013905866666666666 0.36715806666666667 -0.025322266666666666
0.014766466666666667 0.3482832 -0.027628133333333336
0.015157733333333335 0.3395816 -0.027467733333333334
0.0155154 0.33155613333333334 -0.02661866666666667
0.016084666666666667 0.31897153333333333 -0.0271476
0.016942799999999997 0.3000932 -0.028876133333333335
0.014500733333333333 0.35493853333333336 -0.03519253333333334
0.014268533333333333 0.35969986666666665 -0.031250933333333335
0.021701266666666667 0.22511226666666667 -0.033921
0.022826466666666666 0.20197773333333335 -0.036730000000000006
0.03066093333333333 0.03454873333333333 0.007166266666666667
0.03051253333333333 0.037247999999999996 0.011056866666666667
0.023519400000000003 0.18758253333333333 -0.03699293333333333
0.024848933333333333 0.16014453333333334 -0.039290000000000005
0.0190862 0.2793108 -0.031699200000000004
0.019782466666666665 0.26491253333333337 -0.03261833333333333
0.02574246666666667 0.14169246666666666 -0.04071186666666667
0.026738133333333334 0.12102626666666666 -0.0412572
0.0201746 0.25671906666666666 -0.03228946666666667
0.02080826666666667 0.24359786666666666 -0.03294066666666667
0.0305976 0.039583200000000006 -0.029998466666666668
0.030463666666666667 0.0420192 -0.026492400000000003
0.0286246 0.08209426666666667 -0.0445264
0.028635333333333336 0.08161013333333332 -0.04191146666666667
0.0303038 0.0448758 -0.0217866
0.030346266666666667 0.0437096 -0.018967466666666665
0.030714533333333335 0.03872773333333333 -0.04578033333333333
0.03146346666666667 0.023004466666666668 -0.0444094
0.0310974 0.027857399999999997 -0.0167598
0.0305302 0.039201266666666665 -0.012148266666666666
0.030987466666666668 0.032415400000000004 -0.039462333333333335
0.030798866666666664 0.03587373333333333 -0.0347902
0.030690533333333332 0.03317473333333333 0.014744266666666667
0.03062473333333333 0.03418386666666667 0.018342266666666666
0.0311392 0.026171666666666666 -0.0085996
0.03098973333333333 0.028920133333333334 -0.004971333333333333
0.0300552 0.045566466666666666 0.023043066666666667
0.0306806 0.03233166666666667 0.025240266666666667
0.030948733333333332 0.0293722 -0.0009614666666666668
0.030769333333333333 0.03272886666666667 0.002804
0.0145106 0.3736928 -0.02332393333333333
0.015839333333333334 0.34652506666666666 -0.028157866666666666
0.016354999999999998 0.33583413333333334 -0.0285552
0.0166446 0.3296674 -0.027153066666666666
0.016730266666666667 0.3276505333333333 -0.02481406666666667
0.017903 0.3035622 -0.027980333333333333
0.01579406666666667 0.3483864 -0.03734386666666667
0.015220733333333332 0.3597092 -0.0312576
0.023053066666666667 0.2252439333333333 -0.0338996
0.024429866666666668 0.19863906666666667 -0.0374816
0.032099333333333334 0.043885 0.0080456
0.03223073333333333 0.040977 0.011387399999999999
0.024489666666666667 0.1972118 -0.03491773333333333
0.0262966 0.162218 -0.038864666666666665
0.019822466666666667 0.2880714 -0.0294834
0.021342466666666667 0.25877053333333333 -0.03414533333333333
0.027605733333333334 0.1368644 -0.041707799999999996
0.028573866666666666 0.11792126666666666 -0.04187946666666666
0.021597266666666667 0.2536694 -0.03303453333333333
0.022205133333333335 0.2417974 -0.03337333333333334
0.03287986666666667 0.032512 -0.03109366666666667
0.03271793333333333 0.03532406666666667 -0.027495600000000002
0.030017000000000002 0.08977753333333333 -0.0430728
0.0312304 0.0661856 -0.0447818
0.03316993333333333 0.026167733333333332 -0.024452066666666668
0.0327604 0.033776999999999995 -0.020336466666666667
0.03279353333333333 0.03572593333333333 -0.046325399999999996
0.0331802 0.027879066666666667 -0.0435752
0.03258966666666666 0.03664766666666666 -0.015614733333333334
0.032674600000000005 0.0346944 -0.0127168
0.03283493333333334 0.03419966666666666 -0.0391702
0.0326332 0.0376846 -0.034504733333333336
0.03249986666666667 0.03535273333333333 0.014924533333333333
0.03257613333333333 0.03352173333333333 0.018293933333333335
0.032716 0.03338713333333333 -0.007753333333333333
0.03373246666666666 0.0133776 -0.0067184
0.03169053333333333 0.050356733333333334 0.023382266666666665
0.0327922 0.028620333333333334 0.0250012
0.0328344 0.030378533333333336 -0.0008552666666666667
0.03254113333333333 0.03572673333333333 0.003105933333333333
0.015071466666666667 0.3802986666666667 -0.021303933333333334
0.016856933333333334 0.34603253333333334 -0.0283134
0.017358 0.33623326666666664 -0.0284498
0.0178608 0.32635053333333336 -0.02808573333333333
0.018233866666666664 0.3189516666666667 -0.027170466666666667
0.019507133333333333 0.2943383333333333 -0.030393800000000002
0.016353333333333334 0.3565334 -0.03469233333333333
0.0160632 0.36180606666666665 -0.030598933333333335
0.024875133333333334 0.21686666666666668 -0.0358174
0.025892066666666665 0.19823546666666667 -0.03758066666666667
0.0341182 0.041557666666666666 0.007827133333333333
0.0338998 0.0452034 0.011761933333333334
0.026117933333333333 0.19386426666666667 -0.035651
0.0280146 0.1591734 -0.03951046666666667
0.021957666666666667 0.27063279999999995 -0.03392206666666667
0.021893333333333334 0.271531 -0.031001
0.029519933333333335 0.13166046666666667 -0.04278126666666667
0.029986933333333333 0.1228372 -0.0409156
0.022893 0.2532564666666667 -0.03314366666666667
0.0232672 0.2462558 -0.032332733333333336
0.035201 0.025532333333333334 -0.0321752
0.03481633333333333 0.0322244 -0.027962866666666666
0.03171946666666667 0.09098826666666666 -0.04285086666666667
0.03322866666666666 0.0633236 -0.04532133333333333
0.034783600000000005 0.0323906 -0.023571066666666664
0.03440766666666666 0.038949866666666666 -0.019629133333333333
0.03552193333333333 0.02127146666666667 -0.0489222
0.03525266666666667 0.025754466666666666 -0.04394933333333333
0.0346862 0.03343906666666666 -0.016036866666666667
0.03440113333333333 0.03833366666666667 -0.012262200000000001
0.03462306666666667 0.03687633333333333 -0.038729066666666666
0.034781066666666666 0.03359753333333334 -0.035168333333333336
0.0346052 0.0318694 0.0146408
0.03500113333333333 0.024251866666666667 0.017588133333333332
0.03491626666666667 0.0284148 -0.008339466666666667
0.035156066666666666 0.023701133333333336 -0.00556
0.03420286666666667 0.03851913333333334 0.022553866666666665
0.03496533333333333 0.0242008 0.0247162
0.03451046666666667 0.03512033333333333 -0.0003526666666666667
0.034196 0.040541799999999996 0.0035909333333333333
0.016187066666666666 0.3762211333333333 -0.022566333333333334
0.0175504 0.3514232666666667 -0.0267266
0.01838386666666667 0.33618373333333335 -0.028474133333333332
0.019038333333333334 0.3241041333333333 -0.028721133333333333
0.019552333333333335 0.31456199999999995 -0.028364733333333333
0.020355333333333333 0.29977386666666667 -0.028986333333333333
0.017458866666666666 0.3539964666666667 -0.035533
0.017190666666666667 0.35856780000000005 -0.03164313333333333
0.026973066666666667 0.20465293333333331 -0.03861033333333333
0.026993800000000002 0.2040572 -0.036294733333333336
0.036262466666666666 0.037307 0.007427666666666667
0.0362966 0.03635373333333333 0.010981333333333334
0.0273516 0.19764413333333333 -0.03484226666666667
0.030069799999999997 0.15066966666666665 -0.04129926666666666
0.022623733333333333 0.2801395333333333 -0.0315176
0.023754866666666666 0.2605443333333333 -0.03372686666666667
0.0309398 0.1354984 -0.0420056
0.0322876 0.111993 -0.04307006666666667
0.024187200000000002 0.2529203333333333 -0.0332348
0.024815466666666668 0.24192606666666666 -0.033362133333333335
0.03722753333333333 0.024378999999999998 -0.03235893333333333
0.0360298 0.0447368 -0.0261018
0.03404313333333333 0.08139953333333333 -0.044683999999999995
0.0351596 0.06193033333333333 -0.04558873333333333
0.036893133333333335 0.029401266666666665 -0.02400086666666667
0.036666866666666666 0.0330098 -0.020449733333333334
0.03780033333333333 0.0160944 -0.04985813333333333
0.037085999999999994 0.027980133333333334 -0.04357306666666667
0.03673013333333333 0.031486066666666666 -0.016295266666666666
0.03657066666666667 0.03393293333333333 -0.012817799999999999
0.03675253333333333 0.033396866666666664 -0.0393186
0.037340533333333335 0.022853599999999998 -0.036903200000000004
0.03654366666666666 0.031661466666666666 0.014625733333333333
0.03636760000000001 0.03437146666666667 0.018363733333333333
0.0367492 0.030334333333333335 -0.0081158
0.037704133333333334 0.013464266666666667 -0.006711333333333333
0.0366506 0.029060866666666667 0.021892866666666667
0.03675486666666667 0.026933866666666664 0.024898333333333335
0.0369138 0.026762933333333336 -0.0012402000000000001
0.036203733333333335 0.03873853333333333 0.0034092000000000003
0.01711693333333333 0.37573413333333333 -0.022726333333333334
0.019051533333333332 0.3425066 -0.02937913333333333
0.019257666666666666 0.3387324666666667 -0.027751
0.019903133333333333 0.3274304 -0.027805266666666665
0.0206952 0.31363626666666666 -0.02862486666666667
0.0221606 0.2883002666666667 -0.03198806666666667
0.01830633333333333 0.3561091333333334 -0.0348546
0.01798766666666667 0.3612860666666667 -0.030787266666666667
0.028046 0.21034946666666665 -0.03732273333333334
0.0283308 0.20547733333333335 -0.0359888
0.0381254 0.038134 0.007506133333333333
0.03780546666666666 0.04305113333333333 0.011574333333333332
0.029411666666666666 0.1875942 -0.0370274
0.031002133333333334 0.16133240000000001 -0.03907806666666667
0.02401633333333333 0.27691079999999996 -0.0323486
0.025360533333333334 0.25482166666666667 -0.0351524
0.03285726666666667 0.13084946666666666 -0.0429668
0.0341056 0.11012400000000001 -0.0434496
0.0256244 0.2503032 -0.03387733333333333
0.026263533333333332 0.23967013333333334 -0.033903866666666664
0.03868753333333333 0.0326396 -0.031091466666666668
0.0379588 0.04427506666666667 -0.026176133333333334
0.036517 0.07033026666666667 -0.046799600000000004
0.03670286666666667 0.06702233333333334 -0.04465266666666667
0.038675266666666666 0.032097466666666664 -0.023622066666666667
0.038124200000000004 0.04084273333333333 -0.019377
0.038963866666666666 0.029675333333333335 -0.04743466666666667
0.038560000000000004 0.03587426666666667 -0.04221866666666666
0.03883166666666667 0.028796600000000002 -0.01665
0.038292733333333336 0.0373396 -0.012392666666666666
0.038973600000000004 0.028779866666666667 -0.040099
0.0387594 0.03188086666666667 -0.03545793333333334
0.038217999999999995 0.035846666666666666 0.014970733333333335
0.0388068 0.025775133333333332 0.01770973333333333
0.038350666666666665 0.035882866666666666 -0.0074656666666666665
0.03929626666666666 0.019998133333333334 -0.005978733333333333
0.03851466666666667 0.0302092 0.021976866666666664
0.03883093333333333 0.024668866666666667 0.0247544
0.038740866666666665 0.02874593333333333 -0.0010304666666666666
0.03790946666666666 0.04210413333333333 0.0037481333333333334
0.0182204 0.37249879999999996 -0.023731466666666666
0.019874333333333334 0.34545406666666667 -0.028517266666666666
0.020575533333333333 0.3338504666666667 -0.029167933333333333
0.021519133333333332 0.31826866666666664 -0.030367933333333333
0.021681666666666665 0.31534460000000003 -0.02817453333333333
0.0226456 0.29939673333333333 -0.02910546666666667
0.019021266666666665 0.3601532666666667 -0.033545200000000004
0.019121533333333333 0.35830566666666663 -0.03175066666666667
0.029147733333333332 0.21506440000000002 -0.036259200000000005
0.030609333333333332 0.1921738 -0.038961
0.039947333333333335 0.03953746666666667 0.007638933333333334
0.03997866666666667 0.03868526666666667 0.01119
0.03157833333333333 0.1768582 -0.039361933333333335
0.032749600000000004 0.1583332 -0.0397162
0.0255452 0.2718905333333333 -0.033635533333333335
0.025903866666666667 0.26608126666666665 -0.03237993333333333
0.03493686666666666 0.1241352 -0.04435133333333333
0.03598226666666667 0.10753186666666667 -0.0439728
0.027323 0.2438988 -0.0354352
0.0277616 0.23686246666666666 -0.034576133333333335
0.0412634 0.0227084 -0.03262926666666667
0.04069746666666666 0.031226466666666668 -0.028128466666666668
0.03811026666666666 0.07402360000000001 -0.046107
0.0389878 0.060100933333333335 -0.0459474
0.0405014 0.03385913333333333 -0.023376466666666665
0.039614333333333335 0.04742593333333334 -0.018476266666666668
0.040861600000000005 0.030542133333333332 -0.047288866666666665
0.04088946666666667 0.029700800000000003 -0.043293
0.04116853333333333 0.022694666666666665 -0.017450733333333336
0.040401933333333334 0.03437433333333333 -0.012768266666666667
0.040950933333333335 0.028414266666666667 -0.04016826666666666
0.04086806666666667 0.029298666666666664 -0.035880600000000006
0.04017506666666667 0.03520033333333333 0.014919866666666667
0.0408638 0.024020266666666668 0.017578466666666667
0.040098133333333334 0.038625933333333334 -0.007145333333333333
0.0410878 0.0227954 -0.005666
0.0402548 0.03320953333333333 0.022191000000000002
0.040672066666666666 0.02632946666666667 0.024866933333333334
0.0407868 0.0271184 -0.0012039333333333333
0.040040733333333335 0.0384824 0.0033832000000000003
0.019523733333333335 0.3665056666666667 -0.025585066666666666
0.020816666666666667 0.3462868 -0.028282466666666665
0.0211452 0.340966 -0.027130666666666668
0.0225886 0.31841306666666663 -0.030339533333333335
0.022998866666666666 0.31179253333333334 -0.029144866666666665
0.024687666666666667 0.2853928 -0.0327688
0.020392466666666668 0.3537466 -0.035653399999999995
0.0194416 0.3681125333333333 -0.028633133333333335
0.031130866666666666 0.2063248 -0.03826273333333333
0.03155173333333333 0.19985966666666669 -0.0372614
0.0428788 0.024198933333333332 0.006195999999999999
0.042430999999999996 0.030543466666666668 0.0104722
0.032938800000000004 0.17904499999999998 -0.038899800000000005
0.035525400000000006 0.14038213333333335 -0.04348433333333333
0.027227933333333332 0.26506626666666666 -0.035381666666666665
0.028129733333333334 0.2514886 -0.03600013333333333
0.036569 0.1246754 -0.044252
0.03799333333333333 0.1031922 -0.0448424
0.028632733333333334 0.24382753333333335 -0.035464333333333334
0.0291864 0.23540006666666666 -0.0349322
0.04243326666666667 0.0346368 -0.03079666666666667
0.0425082 0.033206733333333335 -0.0278392
0.040453199999999995 0.06626320000000001 -0.0475944
0.04147833333333333 0.0507682 -0.04769046666666667
0.04285886666666667 0.027547333333333333 -0.024279866666666667
0.041690200000000004 0.04468093333333333 -0.01885826666666667
0.043307066666666665 0.0232024 -0.04861373333333333
0.04245726666666667 0.035425599999999995 -0.0423138
0.0434892 0.017401133333333332 -0.01814606666666667
0.0417296 0.043363733333333335 -0.011642066666666668
0.04292653333333333 0.028119066666666668 -0.04022613333333334
0.0432494 0.0229048 -0.03691706666666667
0.0424592 0.0297172 0.014472800000000001
0.042557333333333336 0.02789293333333333 0.017877266666666666
0.0424262 0.03245106666666667 -0.007873266666666667
0.04318913333333333 0.020714933333333335 -0.005901266666666667
0.042178933333333335 0.03318446666666667 0.022192933333333335
0.042564000000000005 0.027087133333333333 0.024920733333333334
0.042498933333333336 0.0306464 -0.0008302666666666666
0.04196133333333333 0.0383578 0.0033705333333333334
0.020178066666666668 0.37058700000000006 -0.024342933333333334
0.022097066666666665 0.34208353333333336 -0.029540866666666665
0.022887666666666664 0.3301964 -0.030244733333333332
0.023110866666666667 0.32660253333333333 -0.02807046666666667
0.0235106 0.3204321333333333 -0.026824
0.025186866666666665 0.2954144 -0.030167133333333332
0.020883866666666664 0.36081393333333334 -0.033356333333333335
0.0209894 0.3590364 -0.0315438
0.032458799999999996 0.20761986666666665 -0.037979733333333335
0.033783600000000004 0.18863573333333333 -0.0397724
0.044023266666666665 0.0358138 0.007289933333333333
0.04347413333333334 0.043326333333333335 0.011602933333333334
0.03405533333333333 0.18450086666666668 -0.037730266666666665
0.036985333333333335 0.1426486 -0.043021866666666665
0.0280334 0.2712170666666667 -0.0338314
0.029109200000000002 0.2557684 -0.034954400000000004
0.03836933333333334 0.12279140000000001 -0.04464933333333333
0.039710666666666665 0.1034056 -0.0448116
0.02982193333333333 0.24547113333333334 -0.035079733333333335
0.030233600000000003 0.2394088 -0.03399986666666666
0.04453526666666666 0.03225413333333334 -0.0311712
0.04429046666666667 0.03542940000000001 -0.027514
0.04161066666666667 0.07601613333333333 -0.0457494
0.04424086666666667 0.03839593333333333 -0.04999886666666666
0.04452046666666667 0.0317202 -0.0236916
0.043683400000000004 0.04336333333333333 -0.019044266666666664
0.04537786666666667 0.021835866666666665 -0.048869133333333335
0.04458246666666667 0.03273293333333333 -0.042788200000000005
0.044249666666666666 0.03485566666666667 -0.015870000000000002
0.0447566 0.027301533333333336 -0.0136634
0.044656 0.03136033333333334 -0.039692399999999996
0.04499273333333333 0.0261606 -0.03640126666666667
0.04433946666666667 0.0305158 0.014540599999999999
0.044682 0.025246933333333332 0.017678266666666668
0.044909199999999996 0.024608333333333333 -0.008797333333333332
0.04574913333333333 0.012264133333333333 -0.0068523333333333335
0.0441484 0.03251766666666667 0.02215
0.044539333333333334 0.026589466666666665 0.0248928
0.04505973333333334 0.021728733333333337 -0.0017774666666666669
0.043666133333333336 0.041342333333333335 0.003671133333333333
0.021844 0.3601202 -0.027573533333333334
0.023033666666666668 0.3430806 -0.029258666666666665
0.02304353333333333 0.34267833333333336 -0.0266624
0.024893600000000002 0.3163451333333333 -0.030941066666666666
0.025765266666666668 0.30377646666666663 -0.031334266666666666
0.0269488 0.2867668 -0.032435399999999996
0.021772933333333334 0.3616994 -0.03308126666666667
0.022439066666666667 0.35213140000000004 -0.0337626
0.03374513333333333 0.2093792 -0.037591400000000004
0.0355446 0.18474433333333332 -0.04065166666666666
0.04554933333333333 0.041232200000000004 0.007800733333333334
0.045467 0.042004599999999996 0.011487733333333333
0.03630906666666667 0.1740836 -0.039998266666666664
0.038435133333333336 0.14487326666666667 -0.04256853333333333
0.029555466666666665 0.2671771333333333 -0.03487146666666666
0.030518133333333333 0.2538901333333333 -0.03543213333333333
0.04033613333333333 0.118816 -0.045475400000000006
0.04214626666666667 0.09385073333333334 -0.046714799999999994
0.031324866666666666 0.2427406 -0.03575233333333334
0.032884533333333334 0.2213746 -0.038262066666666664
0.04651606666666666 0.031738866666666664 -0.03125806666666667
0.046673 0.0292824 -0.028437866666666665
0.0453206 0.05024873333333334 -0.0506656
0.0460224 0.040419133333333336 -0.049634733333333333
0.04618626666666667 0.03550046666666666 -0.0231594
0.046235200000000004 0.03453233333333334 -0.020263733333333332
0.0479802 0.013359866666666666 -0.05039893333333333
0.0466662 0.03084493333333333 -0.043124133333333335
0.047373 0.018536733333333333 -0.018006066666666667
0.046619 0.028538066666666664 -0.013511533333333332
0.04659973333333333 0.03142246666666667 -0.03969126666666667
0.04683533333333333 0.027802533333333334 -0.0361454
0.046072666666666665 0.0332814 0.014769666666666665
0.046763066666666665 0.0234356 0.017543133333333336
0.04614886666666666 0.034466866666666665 -0.007640999999999999
0.04718033333333334 0.02000513333333333 -0.0059844
0.046166599999999995 0.0312504 0.022065066666666668
0.046891800000000004 0.020952199999999997 0.02452966666666667
0.04619926666666666 0.03306153333333333 -0.0005756
0.04542186666666667 0.04339126666666667 0.0038774666666666667
0.022940533333333336 0.3581924 -0.0281802
0.024046533333333335 0.34297526666666667 -0.029303733333333335
0.0257486 0.319781 -0.03327246666666667
0.0259392 0.31689186666666663 -0.03080233333333333
0.02620026666666667 0.3130773333333333 -0.0288356
0.02796473333333333 0.28892633333333334 -0.03188526666666667
0.0229678 0.3584132666666667 -0.0341714
0.023049 0.3570896 -0.03219433333333333
0.035799866666666666 0.2010118 -0.039512533333333336
0.0366254 0.19002639999999998 -0.039488666666666665
0.048252199999999995 0.030716533333333334 0.006811800000000001
0.0481038 0.03230846666666667 0.010632866666666666
0.0379408 0.17261146666666666 -0.04033
0.040845066666666666 0.1344174 -0.044770533333333334
0.031056066666666667 0.26374653333333337 -0.035757533333333334
0.031594199999999996 0.25649226666666664 -0.0348022
0.042042800000000005 0.11855986666666667 -0.04554073333333333
0.0441312 0.09095253333333334 -0.04730113333333333
0.0328466 0.23999306666666667 -0.0364298
0.03346126666666667 0.231756 -0.03582913333333334
0.04855346666666667 0.030534733333333335 -0.03145153333333333
0.0490572 0.02361706666666667 -0.02929026666666667
0.047851533333333335 0.041669733333333334 -0.04941453333333334
0.04860813333333334 0.029070666666666668 -0.02408053333333333
0.048381266666666665 0.03174606666666666 -0.0206522
0.048677866666666667 0.030469533333333333 -0.047344399999999995
0.049639333333333334 0.017487933333333334 -0.045441199999999994
0.04860066666666667 0.028433466666666667 -0.016717533333333333
0.04814333333333333 0.03412733333333333 -0.012812933333333333
0.049087933333333326 0.024367133333333336 -0.0408822
0.047995666666666666 0.0382578 -0.034471466666666666
0.048398399999999994 0.028018333333333333 0.014341
0.047875 0.034576466666666666 0.01839733333333333
0.048325599999999996 0.0312236 -0.008024666666666668
0.04859173333333333 0.027395666666666665 -0.0051558
0.047850533333333334 0.034511 0.022298133333333334
0.04753266666666667 0.03840293333333333 0.025673333333333333
0.0480968 0.0335174 -0.0005280666666666666
0.04761973333333334 0.03946346666666667 0.0034816666666666668
0.02360766666666667 0.3619658 -0.0270344
0.025524666666666664 0.33687253333333333 -0.031127866666666667
0.025614599999999998 0.3354404 -0.02877513333333333
0.027324 0.31301100000000004 -0.031898133333333335
0.027793933333333333 0.30662880000000003 -0.0305912
0.030098 0.2764322 -0.035159199999999995
0.0239548 0.3580742666666667 -0.03429833333333333
0.024472466666666668 0.3511678 -0.034101200000000005
0.0362344 0.21355886666666668 -0.036665199999999995
0.03922586666666667 0.17589653333333333 -0.042649733333333335
0.0491912 0.04337286666666666 0.008003866666666666
0.05044853333333333 0.027075000000000002 0.010172333333333334
0.03922953333333334 0.17555486666666667 -0.039706066666666665
0.04172493333333334 0.14394646666666666 -0.04278886666666667
0.032337333333333336 0.26332426666666664 -0.03587953333333334
0.0332868 0.2512044666666667 -0.03612473333333333
0.04373846666666667 0.11847213333333334 -0.0455722
0.0343826 0.23728706666666666 -0.037098
0.035471600000000006 0.22342959999999998 -0.037805533333333335
0.0511048 0.022961266666666664 -0.0326278
0.050670733333333336 0.0281128 -0.0286268
0.0506378 0.030815933333333333 -0.0514432
0.050530733333333334 0.029444266666666667 -0.0240336
0.05031653333333333 0.031845066666666665 -0.02064413333333333
0.05078266666666666 0.02858813333333333 -0.0476934
0.051407666666666664 0.0203216 -0.0449628
0.050299133333333336 0.031633266666666666 -0.016304
0.0509552 0.0230334 -0.014210733333333333
0.051199133333333334 0.0226112 -0.0411864
0.050588 0.02989093333333333 -0.03582713333333333
0.05041626666666667 0.027078666666666664 0.014266666666666667
0.050620533333333335 0.024132066666666667 0.017603266666666666
0.05054613333333333 0.02768826666666667 -0.008442866666666667
0.05130233333333333 0.017795799999999997 -0.006236266666666667
0.04921706666666667 0.0415636 0.022797466666666665
0.0502998 0.027497733333333333 0.024966933333333333
0.049963733333333336 0.034337066666666666 -0.00044199999999999996
0.04932073333333333 0.0421422 0.0037514000000000002
0.025143066666666665 0.35468079999999996 -0.02929
0.025847533333333332 0.34559666666666666 -0.028555866666666666
0.026911200000000003 0.3321114 -0.029749266666666666
0.0281264 0.3166832 -0.030889466666666664
0.02863973333333333 0.3099979333333333 -0.029695466666666667
0.030077866666666668 0.29175246666666665 -0.031175866666666666
0.024767933333333332 0.3599202 -0.03371093333333333
0.024246800000000002 0.3661478666666667 -0.029332399999999998
0.0391074 0.1958212 -0.040725066666666664
0.0404554 0.17933826666666666 -0.04189773333333333
0.05210786666666667 0.030971000000000002 0.006837533333333334
0.05192046666666667 0.032894400000000004 0.010688133333333332
0.0413332 0.16846453333333333 -0.041255933333333335
0.045076866666666666 0.12295773333333333 -0.047198333333333335
0.033293333333333335 0.2668456 -0.0349994
0.0342898 0.2546038666666667 -0.0352986
0.0357598 0.236698 -0.03725526666666667
0.0373456 0.21736893333333332 -0.039249
0.05302506666666666 0.0236138 -0.032535666666666664
0.05233106666666667 0.031716466666666665 -0.028096600000000003
0.05172946666666667 0.0412664 -0.049515133333333336
0.052417066666666665 0.03024033333333333 -0.023926866666666668
0.052618733333333334 0.02748933333333333 -0.021249066666666667
0.05266713333333333 0.029521733333333335 -0.0475384
0.052934999999999996 0.0258712 -0.04401566666666667
0.05238866666666667 0.029851133333333335 -0.0165416
0.052141 0.032548933333333335 -0.013018933333333335
0.05267946666666667 0.028635066666666667 -0.040188133333333334
0.052486000000000005 0.0305712 -0.03572706666666667
0.05133293333333333 0.03966773333333333 0.0153008
0.052611866666666667 0.023690933333333334 0.0175732
0.0516428 0.03810453333333333 -0.007221133333333333
0.05270006666666667 0.0249066 -0.005439266666666666
0.05095086666666667 0.0436082 0.0229454
0.052326333333333336 0.026474666666666664 0.024905533333333334
0.05220486666666667 0.030545533333333333 -0.0008453333333333334
0.051765 0.03556826666666667 0.003089
0.02568626666666667 0.3597952 -0.027732733333333332
0.027891666666666665 0.33309160000000004 -0.03228073333333333
0.029384 0.3149574666666667 -0.034709133333333336
0.029494333333333334 0.3133119333333333 -0.03184473333333333
0.029461333333333332 0.31341293333333337 -0.0287876
0.0323458 0.27847926666666667 -0.03465513333333334
0.025456133333333335 0.3631235333333333 -0.032679733333333336
0.0265392 0.3499704 -0.03451733333333333
0.04197906666666666 0.1793806 -0.04449073333333333
0.04244793333333333 0.173682 -0.0431732
0.0535006 0.03739686666666667 0.007443266666666667
0.05380413333333333 0.0334632 0.0107402
0.04355706666666667 0.1604964 -0.04299706666666667
0.034505266666666666 0.26715886666666666 -0.03493546666666667
0.03646673333333333 0.24416759999999998 -0.03789686666666667
0.03748733333333333 0.23209893333333334 -0.03838253333333333
0.03810453333333333 0.22468666666666665 -0.0375392
0.05378506666666667 0.037799 -0.03035593333333333
0.0539212 0.03589493333333334 -0.027480800000000003
0.0543112 0.03361166666666667 -0.05095086666666667
0.05419686666666667 0.032239 -0.023649133333333336
0.05386233333333333 0.03585666666666667 -0.020104133333333333
0.05493713333333334 0.025905266666666666 -0.04819946666666666
0.05523106666666667 0.022063933333333334 -0.044685133333333335
0.0547702 0.024788266666666666 -0.017208066666666667
0.054919133333333335 0.022725 -0.0142576
0.05460513333333334 0.0290404 -0.040131066666666666
0.05479246666666667 0.026443133333333334 -0.0364014
0.05322713333333333 0.03985586666666666 0.015319066666666666
0.054755 0.021506733333333337 0.017410266666666667
0.0539764 0.03327086666666666 -0.007792133333333334
0.054809 0.023169933333333333 -0.005636333333333333
0.053745266666666666 0.03301513333333333 0.022206800000000002
0.05413146666666667 0.028148266666666664 0.02502026666666667
0.053469 0.03851626666666667 -3.3333333333333335e-07
0.0539358 0.0326936 0.0027993333333333334
0.026453666666666667 0.3619668666666667 -0.027080866666666665
0.028007466666666665 0.3437253333333333 -0.029142666666666664
0.029613466666666664 0.32492906666666665 -0.0318514
0.030340333333333334 0.3162186666666667 -0.031050333333333333
0.031563 0.30179233333333333 -0.03194346666666667
0.033520266666666666 0.2788178 -0.034582666666666664
0.026264733333333335 0.36471933333333334 -0.03217506666666667
0.027417466666666668 0.351229 -0.03413293333333333
0.042129599999999996 0.19458026666666667 -0.04103933333333333
0.044406266666666666 0.16881026666666665 -0.04427473333333333
0.05580706666666667 0.033012733333333336 0.0070316
0.05596146666666667 0.03089453333333333 0.010515266666666667
0.03594873333333334 0.26487026666666663 -0.03553386666666667
0.03762886666666666 0.2458114 -0.03750646666666667
0.038563 0.2351212 -0.037668066666666666
0.040319600000000004 0.21520053333333333 -0.03979186666666667
0.056671266666666664 0.02701426666666667 -0.03202886666666667
0.0555308 0.0395762 -0.0269394
0.055842133333333335 0.038323133333333335 -0.05008966666666667
0.056023666666666666 0.0335796 -0.023465266666666665
0.055041066666666666 0.044388866666666665 -0.018936533333333335
0.056865533333333336 0.026397 -0.0481246
0.0566346 0.0285884 -0.0435702
0.0559788 0.03335673333333333 -0.016093466666666667
0.055736466666666665 0.0357872 -0.012620333333333334
0.05626866666666666 0.03238333333333333 -0.039582400000000004
0.056941266666666664 0.024390933333333333 -0.036742000000000004
0.05564453333333333 0.034093599999999995 0.01485
0.056837733333333335 0.020171666666666664 0.017312333333333332
0.05641513333333333 0.027593066666666666 -0.008462466666666666
0.057173133333333334 0.018673600000000002 -0.006143666666666667
0.055717666666666665 0.032522999999999996 0.0221772
0.056332200000000006 0.0252138 0.0248346
0.05629086666666667 0.0282798 -0.0010878
0.05565626666666667 0.035139666666666666 0.0030456000000000003
0.028588 0.34879513333333334 -0.031150933333333335
0.030275066666666666 0.3296766666666667 -0.0333282
0.031158 0.31956619999999997 -0.033414733333333335
0.03150713333333333 0.31535379999999996 -0.031308133333333335
0.032913866666666666 0.2993616666666667 -0.032616933333333334
0.0341274 0.2854778 -0.032860266666666665
0.027635066666666666 0.3599762 -0.0337462
0.0282426 0.35299673333333337 -0.033586333333333336
0.04451533333333334 0.1845618 -0.04334193333333333
0.057663933333333334 0.03386566666666667 0.007112866666666666
0.057446333333333335 0.03589173333333333 0.0109586
0.03757113333333333 0.26080806666666667 -0.0365842
0.0394024 0.24074213333333333 -0.0387784
0.0406856 0.22662373333333333 -0.039739533333333334
0.04117113333333333 0.22111333333333333 -0.03841413333333333
0.057948066666666666 0.03451786666666667 -0.0308804
0.058822799999999995 0.024657933333333333 -0.0291748
0.0587228 0.028049 -0.0520136
0.0579314 0.0339566 -0.023418866666666666
0.05746073333333333 0.038799600000000004 -0.0197118
0.0591204 0.023312600000000003 -0.0486914
0.0590918 0.02321173333333333 -0.0445118
0.05808873333333333 0.03150553333333333 -0.016340666666666667
0.057919533333333335 0.033043 -0.0129696
0.058611866666666665 0.028107466666666667 -0.04031033333333334
0.059616 0.016751933333333333 -0.03798266666666667
0.05851226666666667 0.023779066666666668 0.0140082
0.057521333333333334 0.034317266666666665 0.018396199999999998
0.058196000000000005 0.0295072 -0.008240466666666666
0.059374333333333335 0.016272533333333332 -0.0064156
0.057741933333333335 0.031502333333333334 0.022110666666666667
0.0579288 0.02913393333333333 0.025096200000000003
0.058501533333333335 0.025438133333333335 -0.0013904666666666667
0.05764946666666667 0.034440266666666663 0.0029749999999999998
0.0293278 0.3514965333333333 -0.030337600000000003
0.031744266666666666 0.32516386666666663 -0.034685733333333336
0.03163153333333333 0.32609853333333333 -0.0315488
0.032877866666666665 0.31235413333333334 -0.03216206666666667
0.0334536 0.30584853333333334 -0.030880266666666666
0.03572226666666667 0.2810334 -0.03403766666666667
0.0282764 0.36337506666666664 -0.0326524
0.0294302 0.3507607333333333 -0.03432006666666666
0.0586896 0.043502266666666664 0.0080208
0.05944513333333334 0.03511773333333333 0.010892266666666667
0.03921393333333333 0.256805 -0.037620466666666665
0.0413612 0.234073 -0.04044746666666667
0.0420512 0.22660946666666665 -0.0397606
0.04315106666666667 0.21483586666666668 -0.03991193333333333
0.06085206666666666 0.024372866666666666 -0.03245566666666667
0.058766933333333334 0.0460746 -0.0259862
0.060233466666666666 0.032870533333333334 -0.05113286666666667
0.059243866666666666 0.0406116 -0.022478733333333334
0.059839666666666666 0.034015800000000006 -0.0203766
0.06151653333333333 0.018954266666666667 -0.049487333333333335
0.06138366666666666 0.019939 -0.04509046666666667
0.06121613333333333 0.019023466666666666 -0.017977466666666667
0.06055193333333333 0.025733533333333333 -0.013892866666666667
0.06087226666666667 0.024995133333333332 -0.040843866666666666
0.0604434 0.029107666666666664 -0.03600406666666667
0.0605316 0.023166000000000003 0.0139612
0.05971233333333333 0.03152446666666667 0.0181872
0.06008626666666667 0.030152 -0.0081678
0.061030999999999995 0.01981166666666667 -0.006020133333333333
0.059389066666666664 0.03457433333333334 0.0223314
0.060665199999999996 0.020674866666666666 0.024550866666666667
0.0595124 0.035518266666666666 -0.00032166666666666666
0.05914913333333334 0.03903553333333333 0.0034378
0.029736266666666667 0.357475 -0.028515799999999997
0.03245493333333333 0.32884626666666666 -0.03361166666666667
0.033900933333333334 0.3135066666666667 -0.035199
0.0345084 0.3068474 -0.03371626666666667
0.03525506666666667 0.29875513333333337 -0.03281573333333333
0.03721273333333333 0.2779768666666667 -0.03485353333333333
0.029759733333333333 0.35782106666666663 -0.03449120000000001
0.029410933333333333 0.3612099333333333 -0.0309988
0.0622534 0.02644173333333333 0.006416333333333333
0.06171786666666667 0.0315842 0.010582333333333332
0.040459800000000004 0.2570788 -0.03756926666666667
0.042077800000000005 0.24041486666666667 -0.03889546666666666
0.04340533333333333 0.2267198 -0.03975206666666666
0.045182066666666666 0.20844373333333335 -0.04143786666666667
0.061543400000000005 0.037497666666666665 -0.030440000000000002
0.06145646666666667 0.038075333333333336 -0.0271894
0.062069799999999994 0.03408133333333333 -0.05092353333333333
0.061656 0.03560473333333333 -0.0231994
0.061954199999999994 0.0322516 -0.020626199999999997
0.06300146666666667 0.024174666666666667 -0.048565866666666666
0.0621988 0.0319532 -0.04302773333333333
0.06267053333333333 0.024479933333333332 -0.01727
0.0614704 0.03646646666666666 -0.012548466666666667
0.06119873333333334 0.04183493333333333 -0.0380346
0.0632642 0.020333066666666667 -0.03742846666666667
0.060586999999999995 0.0428244 0.0155746
0.062131533333333336 0.026567133333333333 0.017813199999999998
0.06262626666666667 0.024100666666666666 -0.008882466666666667
0.0632712 0.017149533333333335 -0.0063216
0.061627266666666666 0.031372199999999996 0.022112266666666665
0.06231986666666667 0.0239166 0.024768666666666668
0.06249466666666667 0.024725800000000003 -0.0014682666666666665
0.06161453333333333 0.03342786666666667 0.0028727333333333333
0.030935 0.3551245333333333 -0.029258333333333334
0.033017066666666664 0.3338007333333334 -0.0321602
0.034067 0.3229351333333333 -0.032498400000000004
0.03563426666666667 0.30679046666666665 -0.033750999999999996
0.0359946 0.3028478 -0.0317272
0.03862666666666667 0.2758929333333333 -0.03541626666666667
0.031109 0.3539696666666667 -0.035773533333333336
0.030156533333333332 0.36331393333333334 -0.030345666666666667
0.06382906666666667 0.03025553333333333 0.006776333333333333
0.06409793333333333 0.027207266666666667 0.010198066666666667
0.042573599999999996 0.24882513333333334 -0.0396892
0.0446576 0.2280787333333333 -0.04197006666666667
0.04565173333333334 0.2180632 -0.04186513333333333
0.06536653333333334 0.018793333333333332 -0.03333733333333333
0.06395886666666667 0.032430466666666664 -0.0280416
0.0642562 0.0290484 -0.024141066666666666
0.06276493333333334 0.04355093333333333 -0.01907846666666667
0.06462573333333334 0.027709666666666667 -0.047947
0.06538626666666666 0.01977553333333333 -0.04514646666666667
0.06422253333333333 0.028646400000000002 -0.016731266666666668
0.06427746666666666 0.027784666666666666 -0.013644666666666666
0.06467666666666666 0.026464666666666668 -0.04062306666666667
0.0649266 0.023578866666666667 -0.03691746666666666
0.0639934 0.027844133333333333 0.014351133333333332
0.06448886666666667 0.022541199999999997 0.0175104
0.0639366 0.030662266666666667 -0.008114333333333333
0.06490846666666666 0.020662533333333333 -0.0059292
0.06327226666666667 0.034304666666666664 0.022323466666666666
0.064006 0.026656666666666665 0.024953866666666664
0.06369513333333333 0.03234686666666667 -0.0006605333333333333
0.06316933333333334 0.03724706666666667 0.0032574
0.03172666666666667 0.35689740000000003 -0.028731999999999997
0.03401013333333334 0.33424713333333333 -0.03204746666666666
0.03466533333333333 0.32756633333333335 -0.031181666666666667
0.036488066666666666 0.3094072666666667 -0.03304013333333333
0.03796133333333333 0.2946714 -0.033957600000000004
0.039769933333333334 0.27659833333333333 -0.03525093333333333
0.0315276 0.35942779999999996 -0.034006666666666664
0.031698866666666665 0.35752520000000004 -0.032217466666666666
0.06512413333333333 0.036567666666666665 0.007371466666666667
0.06583006666666666 0.029371333333333336 0.0103914
0.043296600000000005 0.2543129333333333 -0.03831213333333334
0.04486526666666667 0.23908780000000002 -0.039262733333333334
0.06705526666666667 0.021734333333333335 -0.0328942
0.06549033333333333 0.036473533333333336 -0.0274474
0.0668162 0.02327713333333333 -0.024971399999999998
0.06644293333333333 0.026567533333333334 -0.021422866666666665
0.06797133333333334 0.014530600000000001 -0.050327000000000004
0.06671106666666667 0.026211533333333332 -0.044048333333333335
0.0672944 0.017923066666666664 -0.018139066666666665
0.06611926666666666 0.028936466666666667 -0.013504866666666667
0.06671406666666665 0.02585086666666667 -0.04073926666666667
0.0662844 0.029570266666666668 -0.035964333333333334
0.0653272 0.033837400000000004 0.0148454
0.06598386666666667 0.0271222 0.0178646
0.06681920000000001 0.021667866666666664 -0.009175333333333334
0.06743086666666667 0.015428733333333333 -0.006519866666666666
0.0644028 0.0420626 0.0228732
0.06537553333333333 0.0323168 0.025329466666666668
0.06525213333333334 0.036081600000000005 -0.00026533333333333335
0.06575253333333334 0.030906066666666666 0.0026184
0.03223826666666667 0.36122380000000004 -0.0274194
0.03649466666666667 0.32052600000000003 -0.03614326666666667
0.036156933333333335 0.3234491333333333 -0.03238986666666667
0.03786306666666666 0.3069231333333333 -0.03375346666666667
0.0390596 0.2952442666666667 -0.03382233333333333
0.04158033333333333 0.27091879999999996 -0.03675473333333333
0.03327086666666666 0.35204186666666665 -0.036449199999999994
0.03288493333333333 0.3554562 -0.03290066666666667
0.06717780000000001 0.035401600000000005 0.007262933333333333
0.06682686666666666 0.03833813333333334 0.011185533333333332
0.04297613333333334 0.26914466666666664 -0.034555866666666664
0.06880926666666666 0.023909733333333336 -0.0325694
0.06811166666666667 0.030110266666666666 -0.028407666666666668
0.068257 0.0283174 -0.02426206666666667
0.06768613333333334 0.03335606666666667 -0.020496133333333333
0.0690748 0.023016133333333334 -0.04882093333333334
0.06851460000000001 0.027826200000000002 -0.043784000000000003
0.06941193333333334 0.016766266666666665 -0.0182966
0.06770386666666667 0.03244466666666666 -0.013068999999999999
0.0681978 0.030451266666666664 -0.03998186666666667
0.0690158 0.0224068 -0.0371308
0.06847866666666666 0.022397466666666664 0.013912333333333334
0.0684808 0.022020066666666668 0.01748013333333333
0.06850766666666666 0.0243992 -0.008857733333333334
0.06896646666666667 0.0197654 -0.0060349999999999996
0.06822806666666666 0.024004599999999997 0.021613066666666667
0.06754806666666666 0.030096333333333333 0.025191733333333334
0.06801873333333333 0.0282612 -0.0010966666666666666
0.06744 0.03335433333333333 0.0028649333333333332
0.034262666666666663 0.3513867333333333 -0.0304706
0.036742399999999995 0.3282068666666667 -0.033883333333333335
0.03834846666666667 0.3131236 -0.03539126666666667
0.0396626 0.30067153333333335 -0.0355196
0.040276733333333335 0.29469306666666667 -0.0339918
0.0429594 0.2695614 -0.03712993333333334
0.032846933333333335 0.3649914666666667 -0.0322272
0.0323274 0.36953786666666666 -0.028416466666666664
0.06971066666666667 0.0299346 0.006749666666666667
0.06969786666666668 0.029685533333333333 0.010423933333333333
0.07105579999999999 0.021502733333333336 -0.032952466666666666
0.06934686666666666 0.03670726666666667 -0.027432466666666665
0.06982486666666668 0.0319324 -0.023755866666666667
0.06940086666666666 0.035487399999999995 -0.020210533333333332
0.0716386 0.017811333333333335 -0.049771666666666665
0.07112426666666667 0.022056333333333334 -0.04479693333333334
0.0698392 0.031067733333333333 -0.016433266666666665
0.07018593333333333 0.027596266666666664 -0.013683933333333334
0.07089293333333332 0.023820066666666664 -0.0411076
0.0704958 0.0270112 -0.03640173333333333
0.0701756 0.024910666666666668 0.014121866666666667
0.06998193333333333 0.026327133333333332 0.01781366666666667
0.07040926666666666 0.025047533333333333 -0.0087852
0.07014433333333334 0.027132066666666666 -0.005209666666666667
0.06977486666666667 0.0278294 0.0218874
0.0703792 0.0219786 0.024670066666666667
0.06968899999999999 0.03089113333333333 -0.0008187333333333334
0.06854460000000001 0.04099713333333333 0.0036347333333333334
0.034861333333333334 0.3548582 -0.029422533333333334
0.03799626666666667 0.3264549333333333 -0.034426
0.0395248 0.31247959999999997 -0.03559926666666667
0.04087413333333333 0.3000502 -0.03571473333333333
0.041753599999999995 0.2918488 -0.03478253333333334
0.04443766666666667 0.2673956 -0.037717266666666666
0.033810466666666664 0.36483526666666666 -0.0323012
0.03255393333333333 0.3758328 -0.026423266666666667
0.07142853333333334 0.0320168 0.006946866666666667
0.07162446666666668 0.029909866666666667 0.0104462
0.0737162 0.015581866666666666 -0.0338786
0.07171333333333334 0.0329578 -0.028003
